ply
format ascii 1.0
comment PCL generated
element vertex 397
property float x
property float y
property float z
element camera 1
property float view_px
property float view_py
property float view_pz
property float x_axisx
property float x_axisy
property float x_axisz
property float y_axisx
property float y_axisy
property float y_axisz
property float z_axisx
property float z_axisy
property float z_axisz
property float focal
property float scalex
property float scaley
property float centerx
property float centery
property int viewportx
property int viewporty
property float k1
property float k2
end_header
0.0033962931 0.094563872 0.044572186
-0.0037613111 0.095500275 0.04488885
-0.012675613 0.094961472 0.044094916
0.024756573 0.09618932 0.03747293
0.023459904 0.10489862 0.029881012
0.032729797 0.094878465 0.03008182
0.027506121 0.09939675 0.032295316
0.02592979 0.10499889 0.023306463
0.034569006 0.094570667 0.024132201
0.014616746 0.1046993 0.036549933
0.0065992661 0.10610966 0.037878901
0.016374432 0.097911686 0.040177066
0.0068915505 0.09884835 0.04192473
0.016995329 0.10742613 0.031749483
0.0071057379 0.11102729 0.031750593
0.02139838 0.10303974 0.035053495
-0.0032493854 0.10657061 0.037893802
-0.012530942 0.10614488 0.0367858
-0.0037427032 0.10091902 0.042250186
-0.014048683 0.10011985 0.041048594
-0.0026549995 0.11141458 0.031969037
-0.012967165 0.11025561 0.030845437
0.015774913 0.11107134 0.025173217
0.0065100398 0.11419886 0.024224473
0.000951536 0.11482336 0.022722656
-0.014473592 0.11263657 0.024026372
-0.019259123 0.093908116 0.042863388
-0.076326847 0.11667649 0.053769488
-0.067052096 0.12715392 0.045209941
-0.073048271 0.12861046 0.047290761
-0.066857934 0.11935094 0.045539852
-0.072637707 0.12041967 0.050756577
-0.081298381 0.11683346 0.053722214
-0.081546433 0.12777133 0.046367459
-0.084148802 0.12099707 0.049607757
-0.089480944 0.11899109 0.044565614
-0.068396613 0.10582021 0.052689672
-0.074442521 0.1089858 0.054397143
-0.06827566 0.10207824 0.052468888
-0.074294925 0.10051786 0.053476673
-0.064137623 0.10917195 0.046271149
-0.070131399 0.11254545 0.051431425
-0.065053739 0.10102207 0.045978334
-0.073559098 0.096023105 0.049144581
-0.082511537 0.11006892 0.053830642
-0.080375798 0.10182181 0.05216321
-0.08711534 0.10921467 0.050496515
-0.091241248 0.10991877 0.045953244
-0.084787346 0.099808283 0.048606228
-0.091476291 0.10159755 0.045081601
-0.056886651 0.1364205 0.035557766
-0.055750068 0.13735859 0.032464843
-0.034838721 0.15816638 0.0085643725
-0.036338679 0.15821069 0.0085501596
-0.034927987 0.15551664 0.0086370474
-0.032263003 0.14310944 0.0088512767
-0.051448591 0.14017776 0.01719754
-0.040568549 0.15252593 0.010641527
-0.048432875 0.15039606 0.011243943
-0.041133083 0.14261134 0.012064002
-0.050501291 0.14473788 0.014435405
-0.06290479 0.13699451 0.038406409
-0.072168097 0.13726139 0.038581561
-0.062727734 0.13963631 0.032890771
-0.072285108 0.14018226 0.032779835
-0.079105444 0.13713616 0.036831345
-0.081715673 0.13889721 0.030678077
-0.087262735 0.13804781 0.026381679
-0.056704927 0.14162038 0.016165692
-0.057163075 0.14375314 0.013341497
-0.088389307 0.13831279 0.023422869
-0.056726184 0.13005158 0.035642102
-0.055659696 0.1193262 0.035886362
-0.054521933 0.13142188 0.0312723
-0.047248177 0.11689934 0.025719903
-0.052040681 0.12123847 0.02985616
-0.019596888 0.10517989 0.034630187
-0.023327671 0.098926827 0.03830066
-0.03350123 0.098732762 0.03547487
-0.022347545 0.1077247 0.028522097
-0.03336183 0.1074967 0.026752565
-0.02613426 0.10416672 0.032208536
-0.032997072 0.10389574 0.031369269
-0.054236446 0.11034054 0.037895415
-0.043246355 0.099015653 0.035235714
-0.053632095 0.1003473 0.036521081
-0.043427676 0.10912798 0.027282123
-0.048971821 0.11136642 0.031322524
-0.043675456 0.10416295 0.031347271
-0.048921876 0.10420026 0.031366698
-0.035156153 0.13755649 0.0068289479
-0.050447647 0.13281229 0.019118216
-0.046828244 0.11784223 0.022191472
-0.049329024 0.12373354 0.02064912
-0.04242624 0.13515773 0.011166055
-0.047620505 0.13244466 0.013967547
-0.023589134 0.11050703 0.022226788
-0.03223468 0.11041868 0.021574423
-0.042264022 0.11291383 0.020238308
-0.062274419 0.13050613 0.040801492
-0.072506458 0.13388409 0.042880066
-0.061601773 0.12036906 0.039633822
-0.083339386 0.13245894 0.039886408
-0.088551648 0.12912844 0.037137773
-0.090071984 0.12258948 0.040429935
-0.085972667 0.13604246 0.032343253
-0.089912534 0.13272689 0.029486416
-0.091176383 0.12326613 0.026282512
-0.060141876 0.11249145 0.041909531
-0.061838951 0.098626211 0.039118458
-0.093221232 0.11203704 0.040161788
-0.093490615 0.1009043 0.039944679
-0.094012469 0.11298148 0.026650414
-0.094936907 0.10658507 0.025146473
-0.091694854 0.13137756 0.023228586
-0.091282852 0.12285854 0.022340376
-0.093986116 0.1028093 0.019331982
0.022566874 0.083290204 0.04492151
0.030957319 0.072928883 0.043269597
0.024771374 0.076581359 0.046241697
0.03109026 0.067177027 0.043267347
0.025159925 0.066883586 0.047059078
0.030751966 0.058938302 0.042237688
0.024846904 0.056979969 0.046017863
0.011458989 0.073150896 0.052940115
0.0044302009 0.074677929 0.054238569
0.015033461 0.085838631 0.046589561
0.0056274459 0.087138228 0.046147905
0.015729818 0.077278368 0.049891341
0.0059007201 0.079633653 0.050541524
-0.005098802 0.075789824 0.055545263
-0.01452602 0.075575233 0.055077162
-0.0041925479 0.087986059 0.046304811
-0.01416192 0.088325791 0.045475338
-0.0043914653 0.081495799 0.04885143
-0.015100187 0.081292629 0.047637686
0.013095375 0.065669373 0.053019024
0.0047186315 0.066587925 0.056362316
0.014071748 0.056665875 0.052883506
0.0044280663 0.056556039 0.055644076
0.017460335 0.068060309 0.050795414
0.018950541 0.055565134 0.050154235
-0.0052484982 0.066687472 0.057571989
-0.015394462 0.066923775 0.057330135
-0.0057363715 0.056666158 0.057502337
-0.015605796 0.057168223 0.056346487
0.029913113 0.048038185 0.040272366
0.024674702 0.047202438 0.0429019
0.023048226 0.038334832 0.041567493
0.019659281 0.028345233 0.038238518
0.01202216 0.047315121 0.051111922
0.0040859561 0.046716817 0.054100107
0.0099859592 0.039014213 0.048954267
0.0039426833 0.036964118 0.051038183
0.016850092 0.046045169 0.047830176
0.014630841 0.03678555 0.04637447
0.0087320618 0.032924436 0.047552835
-0.0057984414 0.046697319 0.055182539
-0.015717238 0.047344781 0.053328048
-0.00608683 0.036852591 0.052067887
-0.01595398 0.037802257 0.050036941
-0.01979588 0.033680171 0.046338059
0.0023366772 0.030263567 0.048590094
0.014037872 0.027432164 0.040816717
0.0046282671 0.026189832 0.043611463
0.013451332 0.020571919 0.039858695
0.0037978943 0.020451043 0.041738488
-0.0059011234 0.030399567 0.048716255
-0.016778572 0.027781008 0.047165249
-0.018382169 0.02085747 0.046529666
-0.0062848777 0.025887007 0.044085119
-0.01588507 0.028067203 0.044976827
-0.0062559852 0.020668013 0.043308444
-0.013628671 0.020670762 0.045082755
0.041805837 0.075800166 0.025971975
0.032707904 0.085798845 0.035963319
0.02629615 0.088006444 0.040448491
0.034042593 0.077308275 0.038190749
0.029367443 0.079893939 0.041937176
0.035330381 0.088169403 0.031234773
0.031218674 0.092396334 0.034313273
0.038998932 0.078558482 0.030299466
0.042009342 0.068091318 0.026931524
0.051350683 0.053997286 0.022068042
0.042761352 0.058287099 0.025320057
0.035430241 0.067357451 0.037862152
0.034961771 0.057361387 0.037030306
0.039926611 0.068517216 0.030922974
0.039753508 0.058048695 0.030183652
0.042389527 0.078710608 0.018996878
0.04318592 0.079926826 0.012489583
0.038244534 0.088428162 0.022204313
0.040855858 0.082403772 0.02128523
0.043653946 0.06986542 0.018492278
0.052834146 0.05461847 0.019694244
0.046499945 0.055992812 0.019050136
0.044394631 0.069358297 0.012252385
0.017350432 0.09040904 0.043050583
0.0089014713 0.091600299 0.04339933
0.043376192 0.038146943 0.031096794
0.053352796 0.047696739 0.025230769
0.045379002 0.048406623 0.027151631
0.053037673 0.038587935 0.025079789
0.047955662 0.037733361 0.029037001
0.033723719 0.047806323 0.036476873
0.029588781 0.04525423 0.039845873
0.034640532 0.037607051 0.032462247
0.027002394 0.035724223 0.037343122
0.038989067 0.047780864 0.028887117
0.038338199 0.042194746 0.029576456
0.041440438 0.031004583 0.030196516
0.051539332 0.031875543 0.021461051
0.044951946 0.028918652 0.02470459
0.034448192 0.029661162 0.029976532
0.02431225 0.028249038 0.033963524
0.021744676 0.021837013 0.031352721
0.034926824 0.025154414 0.026343515
0.028463274 0.025035812 0.027036676
0.033097949 0.022374647 0.022831181
0.026614223 0.021403089 0.024169512
0.05693347 0.049818471 0.018796604
0.04411874 0.053541049 0.020990042
0.056832373 0.039625362 0.018745162
0.052633248 0.031169301 0.018547922
0.047386073 0.027223943 0.017932698
0.019126419 0.028770519 0.037602931
0.018303666 0.019996285 0.035692558
-0.0225803 0.074743882 0.052982461
-0.023715649 0.088038556 0.044072974
-0.033296354 0.086216219 0.042643804
-0.025146525 0.079347946 0.04628592
-0.034435399 0.0790914 0.044539813
-0.045496333 0.086817645 0.041845273
-0.054382488 0.087019548 0.041568171
-0.044380061 0.079482421 0.042692456
-0.054458655 0.07971777 0.043432239
-0.02483581 0.067361854 0.05471627
-0.030251449 0.064427607 0.049678192
-0.024668092 0.058018498 0.05337302
-0.029022429 0.071036838 0.049088925
-0.034766618 0.069128245 0.043809701
-0.028976204 0.056554005 0.045734249
-0.035047077 0.059253052 0.040793899
-0.044649959 0.06945911 0.042542357
-0.054710545 0.069510579 0.043766305
-0.045003444 0.059367053 0.040770087
-0.054935444 0.059795581 0.040820409
-0.063566819 0.087189965 0.04138682
-0.074852139 0.093041383 0.044646747
-0.064304858 0.079921626 0.042795476
-0.072503954 0.079766802 0.040488455
-0.082578428 0.09443298 0.044507377
-0.064785302 0.069761828 0.042946525
-0.073062778 0.070923306 0.040083311
-0.064432122 0.06079746 0.039697871
-0.071467429 0.0637872 0.038539533
-0.022832349 0.04868786 0.050517723
-0.021714825 0.0400308 0.048100375
-0.027064195 0.048212871 0.043083988
-0.037270278 0.050390467 0.038546246
-0.025485419 0.038380712 0.042093486
-0.039567843 0.043462835 0.037221696
-0.044545479 0.049740441 0.038635898
-0.051735222 0.054066747 0.037726015
-0.043788318 0.042361297 0.036969382
-0.026345093 0.026155202 0.047955744
-0.033592261 0.025137352 0.046366524
-0.026543688 0.020917863 0.048687611
-0.034888096 0.021254951 0.046969462
-0.026049655 0.031569213 0.042950179
-0.03596979 0.029064665 0.040726196
-0.039631344 0.021883324 0.042199031
-0.045966852 0.027741725 0.036551189
-0.055961996 0.027757963 0.03804196
-0.046119452 0.022073593 0.03797077
-0.056149192 0.022057697 0.040187199
-0.063451529 0.027602268 0.037066903
-0.064971901 0.022369822 0.03798233
-0.026279408 0.092601456 0.041477941
-0.034370441 0.091392875 0.039826371
-0.04313986 0.091428272 0.039473001
-0.053669341 0.092269681 0.039399803
-0.064057767 0.092318185 0.038977697
-0.073657051 0.089911692 0.037562024
-0.07690084 0.081757136 0.037434049
-0.080916539 0.089803904 0.032002095
-0.082289062 0.0814346 0.03238792
-0.085285336 0.091188639 0.02559487
-0.088646173 0.089296587 0.020068878
-0.087035283 0.082498789 0.026476396
-0.089716665 0.082458392 0.021503881
-0.077778682 0.07008668 0.036686838
-0.067573614 0.05721207 0.03597353
-0.075073048 0.060664654 0.033430822
-0.078947462 0.057739884 0.025240161
-0.082422026 0.071731031 0.032102004
-0.081453569 0.064215459 0.029558456
-0.086919665 0.07223592 0.024601214
-0.089715324 0.075307302 0.02040365
-0.083360493 0.062764198 0.022642147
-0.087521911 0.094161369 0.018406183
-0.088824108 0.091437355 0.016695587
-0.090680525 0.085055731 0.016318364
-0.088206746 0.069529459 0.015854897
-0.090847634 0.07567127 0.01670613
-0.084878556 0.062578425 0.014475191
-0.084088139 0.062213629 0.0037311739
-0.029762754 0.046672806 0.036872387
-0.033283487 0.048805982 0.036556911
-0.029654799 0.039139681 0.035672639
-0.03512869 0.039559908 0.034334842
-0.048998758 0.047714055 0.036001373
-0.055064332 0.050477177 0.033574756
-0.046093579 0.038679682 0.035069752
-0.05269688 0.040713392 0.030283792
-0.058421221 0.046867751 0.025787555
-0.056646917 0.043335691 0.022301437
-0.037742261 0.033070453 0.034406353
-0.045459058 0.03270492 0.034757476
-0.054586884 0.033085518 0.032067675
-0.05623408 0.035552897 0.024444511
-0.056559276 0.04077962 0.0079057282
-0.058104746 0.040834807 0.0038919281
-0.057373505 0.035638951 0.0065507395
-0.058548216 0.037216365 0.0044781757
-0.064447016 0.052303106 0.031994235
-0.072552197 0.054524496 0.029269839
-0.065597497 0.048294902 0.022998214
-0.073632061 0.052174844 0.021380356
-0.063532412 0.045919321 0.018577227
-0.069531858 0.047358863 0.015917812
-0.080480181 0.057297252 0.0173856
-0.065870814 0.029098177 0.032024693
-0.069390357 0.023590768 0.03147994
-0.07103157 0.022025391 0.026673036
-0.075068697 0.051116928 0.014645651
-0.06399864 0.044937208 0.014522342
-0.069995806 0.047385961 0.015007411
-0.059476443 0.041283064 -0.00064980454
-0.08137884 0.05704084 0.014004458
-0.065108806 0.031333707 0.0054307813
-0.069918931 0.029150909 0.0043044165
-0.069225013 0.027113276 0.0068902411
-0.071198687 0.025296694 0.0054128957
-0.063790143 0.034434997 0.0022769244
-0.071093857 0.030704392 0.0021415954
-0.073584758 0.027040029 0.0020981357
-0.01406048 0.17123522 -0.0092579685
-0.012928997 0.16211213 -0.0092611667
-0.014431041 0.14915141 -0.00081435911
-0.014531696 0.14719354 -0.00071859494
-0.011354167 0.15409881 -0.0063796123
-0.012737273 0.14766313 -0.0030540351
-0.011248035 0.17180084 -0.013108851
-0.0091138408 0.16471426 -0.013342967
-0.0068692975 0.1573713 -0.01208728
-0.023443541 0.16949448 0.00033674791
-0.025142634 0.16934177 0.00043623807
-0.023737622 0.16620202 0.00065422297
-0.029475756 0.16242313 0.0038999559
-0.018011445 0.17162164 -0.0045665135
-0.019194977 0.16360945 -0.0050489325
-0.025277235 0.1592671 -0.0013114577
-0.037829671 0.15983634 0.0060562277
-0.021368517 0.15065905 0.00034356007
-0.03013072 0.1530894 0.0031143269
-0.021403335 0.14533406 0.0038383936
-0.029313792 0.14389053 0.0059018745
-0.019332971 0.15546848 -0.0036829135
-0.02518208 0.15813586 -0.0014863187
-0.04037074 0.15460934 0.0070362291
-0.046937067 0.15411554 0.0073074154
-0.036125511 0.14777298 0.0072061787
-0.065009862 0.1459586 -0.0027554054
-0.069951579 0.14641504 -0.00033520279
-0.064025804 0.15189403 -0.011392741
-0.069721349 0.15282798 -0.0094968919
-0.0643612 0.14911501 -0.00743797
-0.071664914 0.14915629 -0.0059998813
-0.074994914 0.1515635 -0.013351817
-0.075455949 0.14762726 -0.00945317
-0.070589736 0.16409737 -0.030710548
-0.074409992 0.1637006 -0.032152083
-0.063576646 0.15558307 -0.018273626
-0.069698945 0.15772317 -0.018019306
-0.063342556 0.15838638 -0.023909315
-0.070663951 0.16115893 -0.025076684
-0.075414598 0.15454967 -0.019804709
-0.075846389 0.15015894 -0.015600738
-0.075356789 0.16006625 -0.027923681
-0.033807561 0.13764998 0.0056386217
-0.062603354 0.16547394 -0.039796792
-0.068478838 0.16803233 -0.037706912
-0.065170489 0.17476065 -0.046584647
-0.06104729 0.17062594 -0.046444111
-0.066045076 0.17231937 -0.043812823
-0.07448414 0.16717225 -0.037060212
0 0 0 1 0 0 0 1 0 0 0 1 0 0 0 0 0 397 1 0 0
