ply
format ascii 1.0
comment PCL generated
element vertex 1376
property float x
property float y
property float z
element camera 0
property float view_px
property float view_py
property float view_pz
property float x_axisx
property float x_axisy
property float x_axisz
property float y_axisx
property float y_axisy
property float y_axisz
property float z_axisx
property float z_axisy
property float z_axisz
property float focal
property float scalex
property float scaley
property float centerx
property float centery
property int viewportx
property int viewporty
property float k1
property float k2
end_header
0.064997457 0.46513805 -0.39959273
0.064997435 0.46716905 -0.39958924
0.064997412 0.46920004 -0.39958572
0.064972907 0.47105357 -0.39566472
0.064972885 0.47308379 -0.39566123
0.064972863 0.47511405 -0.39565772
0.06497284 0.47714427 -0.39565417
0.064948335 0.47899395 -0.39173329
0.064948313 0.48102343 -0.39172977
0.064948291 0.48305291 -0.39172623
0.064948268 0.48508236 -0.39172268
0.064923763 0.48692822 -0.38780192
0.064923741 0.48895693 -0.38779837
0.064923719 0.4909856 -0.38779479
0.064923696 0.49301431 -0.38779122
0.064923674 0.49504301 -0.38778761
0.064923652 0.49707168 -0.387784
0.064923629 0.49910039 -0.3877804
0.064899124 0.50094008 -0.38385981
0.064899102 0.50296801 -0.38385621
0.06489908 0.50499594 -0.38385257
0.064899057 0.50702387 -0.38384894
0.064899035 0.5090518 -0.38384527
0.064825572 0.51050138 -0.37209135
0.064874507 0.51291406 -0.3799212
0.06489896 0.51513553 -0.38383421
0.064874463 0.51696837 -0.37991384
0.064849958 0.51879966 -0.37599355
0.064776503 0.52023625 -0.3642402
0.064727522 0.52186567 -0.35640359
0.064703025 0.5236901 -0.3524836
0.064654045 0.52531409 -0.34464723
0.064654022 0.52733439 -0.3446438
0.064654 0.52935463 -0.34464037
0.064629503 0.53117371 -0.34072062
0.064605005 0.53299129 -0.3368009
0.064604983 0.53501004 -0.33679751
0.06460496 0.53702873 -0.33679411
0.064580463 0.53884327 -0.33287454
0.064580448 0.54086125 -0.33287114
0.064580426 0.54287916 -0.33286774
0.064580403 0.54489714 -0.33286431
0.064580381 0.54691511 -0.33286092
0.064580359 0.54893303 -0.33285746
0.064580336 0.550951 -0.332854
0.064580314 0.55296898 -0.33285055
0.064580292 0.55498689 -0.33284709
0.064604744 0.55721593 -0.33675939
0.064604722 0.55923462 -0.33675584
0.064898379 0.56380469 -0.38374099
0.064922832 0.56604594 -0.38765261
0.064971745 0.56850278 -0.39547977
0.064800411 0.56902862 -0.36806637
0.062671304 0.55229086 -0.027408903
0.0625 0.55273438 0
0.0625 0.5546875 0
0.0625 0.55664062 0
0.0625 0.55859375 0
0.0625 0.56054688 0
0.0625 0.5625 0
0.0625 0.56445312 0
0.0625 0.56640625 0
0.0625 0.56835938 0
0.062573411 0.57098234 -0.011745391
0.062548935 0.57271373 -0.0078301737
0.062548935 0.57466835 -0.0078300862
0.0625 0.57617188 0
0.0625 0.578125 0
0.062573403 0.58075941 -0.011744734
0.0625 0.58203125 0
0.062524468 0.58421302 -0.0039148224
0.064453125 -0.4140625 0
0.064453125 -0.09765625 0
0.064453125 -0.095703125 0
0.068016775 -0.098933488 -0.55290538
0.067890406 -0.096692398 -0.5332998
0.068042062 -0.094846509 -0.55682868
0.067890421 -0.092577845 -0.53330165
0.067890428 -0.090520568 -0.53330255
0.067890435 -0.088463292 -0.53330344
0.067865163 -0.086373843 -0.52938294
0.067865171 -0.084317334 -0.52938378
0.067839898 -0.082230181 -0.52546322
0.067839906 -0.080174431 -0.52546406
0.067814633 -0.07808958 -0.52154344
0.067814641 -0.076034598 -0.52154416
0.067789368 -0.073952042 -0.51762348
0.067789376 -0.07189782 -0.5176242
0.067789376 -0.069843605 -0.51762491
0.067789383 -0.067789383 -0.51762557
0.067789391 -0.065735161 -0.51762623
0.067789391 -0.063680947 -0.51762682
0.067789398 -0.061626725 -0.51762742
0.067789398 -0.059572503 -0.51762801
0.067789406 -0.057518281 -0.51762855
0.067789406 -0.055464059 -0.51762909
0.067789413 -0.053409837 -0.51762962
0.067789413 -0.051355615 -0.51763016
0.067814693 -0.049319774 -0.52155209
0.067814693 -0.047264788 -0.5215525
0.0678147 -0.045209799 -0.52155298
0.0678147 -0.04315481 -0.5215534
0.06783998 -0.041115139 -0.52547526
0.06783998 -0.039059382 -0.52547568
0.06783998 -0.037003625 -0.52547604
0.06786526 -0.034960892 -0.52939785
0.06789054 -0.032916624 -0.53331965
0.06789054 -0.030859336 -0.53331995
0.06789054 -0.028802048 -0.53332025
0.06791582 -0.026754716 -0.537242
0.06791582 -0.024696661 -0.53724229
0.06791582 -0.022638608 -0.53724253
0.067941099 -0.020588212 -0.54116422
0.067915827 -0.018522497 -0.53724289
0.067890547 -0.016458316 -0.53332162
0.067840002 -0.014390303 -0.52547878
0.06778945 -0.012325355 -0.51763594
0.067764178 -0.0102673 -0.51371455
0.067738898 -0.0082107764 -0.50979316
0.067738898 -0.0061580818 -0.50979322
0.067738906 -0.0041053882 -0.50979328
0.067738906 -0.0020526941 -0.50979334
0.067713626 0 -0.50587183
0.067688353 0.0020511621 -0.50195032
0.067688353 0.0041023241 -0.50195032
0.067663074 0.0061511886 -0.49802878
0.067663074 0.0082015852 -0.49802873
0.067663074 0.010251981 -0.49802864
0.067663074 0.012302377 -0.49802852
0.067663074 0.014352773 -0.4980284
0.067663074 0.016403168 -0.49802825
0.067637794 0.018446673 -0.49410662
0.067637794 0.020496301 -0.49410644
0.067637794 0.022545932 -0.49410623
0.067612514 0.02458637 -0.49018455
0.067612514 0.026635233 -0.49018431
0.067637786 0.02869482 -0.49410555
0.067637786 0.030744448 -0.49410525
0.067637786 0.032794077 -0.49410498
0.067637786 0.034843706 -0.49410465
0.067663059 0.036907122 -0.4980258
0.067663051 0.038957518 -0.49802545
0.067663051 0.04100791 -0.49802506
0.067663051 0.043058306 -0.49802467
0.067688324 0.045125548 -0.50194573
0.067688316 0.047176708 -0.50194532
0.067713588 0.049246248 -0.50586629
0.067738861 0.051317319 -0.50978726
0.067738861 0.05337001 -0.50978678
0.067764133 0.05544338 -0.5137077
0.067764126 0.057496835 -0.51370716
0.067764126 0.059550293 -0.51370656
0.067764118 0.061603747 -0.51370603
0.067789391 0.063680947 -0.51762682
0.067814663 0.065759674 -0.52154762
0.067839935 0.067839935 -0.52546835
0.06789048 0.069947764 -0.53331047
0.067915745 0.072031856 -0.53723121
0.068092667 0.074282907 -0.56468022
0.067789368 0.076006256 -0.51762277
0.064453125 0.07421875 0
0.064453125 0.13476562 0
0.064478397 0.17975795 -0.0039208541
0.064453125 0.18164062 0
0.064453125 0.28515625 0
0.068015464 0.30297798 -0.55270195
0.067990176 0.30492565 -0.54877901
0.067990154 0.30698586 -0.54877591
0.067964874 0.30893123 -0.54485297
0.067964852 0.31099069 -0.54484981
0.067939565 0.31293377 -0.54092693
0.06793955 0.31499246 -0.54092377
0.067939527 0.31705114 -0.54092062
0.067939505 0.3191098 -0.54091746
0.067914225 0.32104906 -0.53699458
0.067888938 0.32298678 -0.5330717
0.06791418 0.32516485 -0.53698814
0.067989953 0.32758793 -0.54874367
0.064528912 0.31286746 -0.011758721
0.064453125 0.31445312 0
0.064453125 0.33203125 0
0.067913897 0.35191748 -0.53694439
0.067838095 0.35358036 -0.52518302
0.06786333 0.35576838 -0.52909881
0.067863308 0.35782471 -0.52909535
0.067838028 0.35974711 -0.52517259
0.067787483 0.36153325 -0.51733077
0.067736939 0.36331633 -0.509489
0.067711659 0.36523259 -0.50556642
0.067711636 0.36728433 -0.50556296
0.067661092 0.36906052 -0.4977214
0.067661069 0.37111074 -0.49771798
0.06763579 0.37302163 -0.49379551
0.06761051 0.37493101 -0.48987311
0.06758523 0.37683886 -0.48595071
0.067534693 0.37860358 -0.47810945
0.067509413 0.38050759 -0.47418717
0.067484133 0.38241008 -0.47026491
0.067458853 0.38431102 -0.46634272
0.067433573 0.38621044 -0.46242055
0.067383036 0.38796291 -0.45457962
0.067357756 0.38985851 -0.45065758
0.067332476 0.39175257 -0.44673556
0.067357711 0.39394057 -0.45065099
0.067382947 0.39613006 -0.45456633
0.067408182 0.39832106 -0.45848161
0.067357644 0.4000636 -0.45064098
0.067357622 0.40210462 -0.45063758
0.06733235 0.40399408 -0.44671565
0.067281812 0.40572971 -0.4388752
0.067231283 0.4074623 -0.43103486
0.06723126 0.4094995 -0.43103158
0.067231238 0.41153666 -0.43102828
0.067256473 0.41372919 -0.43494335
0.067256451 0.41576713 -0.43493998
0.067256428 0.41780508 -0.43493661
0.067256406 0.41984302 -0.43493319
0.067231126 0.42172253 -0.4310115
0.067231104 0.4237597 -0.43100807
0.067205831 0.42563692 -0.42708644
0.067205809 0.42767334 -0.42708305
0.067180529 0.42954826 -0.42316145
0.067155257 0.43142164 -0.41923991
0.067155235 0.43345651 -0.41923651
0.067155212 0.43549138 -0.41923311
0.06715519 0.43752626 -0.41922969
0.067129917 0.43939582 -0.41530824
0.067129895 0.44142991 -0.41530481
0.067129873 0.44346401 -0.41530138
0.06712985 0.44549811 -0.41529793
0.067104578 0.44736382 -0.41137657
0.067104556 0.44939715 -0.41137314
0.067104533 0.45143047 -0.41136965
0.067104511 0.45346379 -0.41136616
0.067079239 0.45532572 -0.40744492
0.067079209 0.45735827 -0.40744144
0.067079186 0.45939082 -0.40743795
0.067053914 0.46124968 -0.4035168
0.067028642 0.46310699 -0.39959571
0.067028619 0.46513802 -0.39959222
0.067028597 0.46716902 -0.39958873
0.067028575 0.46920004 -0.39958522
0.067003302 0.47105354 -0.39566424
0.06700328 0.47308379 -0.39566073
0.067003258 0.47511402 -0.39565721
0.067003235 0.47714427 -0.39565369
0.066977963 0.47899392 -0.39173281
0.06697794 0.4810234 -0.3917293
0.066977918 0.48305288 -0.39172575
0.066977896 0.48508236 -0.3917222
0.066952623 0.48692819 -0.38780144
0.066952601 0.4889569 -0.38779789
0.066952579 0.4909856 -0.38779432
0.066952556 0.49301428 -0.38779074
0.066952534 0.49504298 -0.38778713
0.066952512 0.49707168 -0.38778353
0.066952489 0.49910036 -0.38777992
0.066927217 0.50094008 -0.38385934
0.066927195 0.50296801 -0.38385573
0.066927172 0.50499594 -0.38385209
0.06692715 0.50702387 -0.38384846
0.066927128 0.50905174 -0.38384479
0.06685137 0.51050133 -0.37209088
0.066901833 0.51291406 -0.37992072
0.066927053 0.51513553 -0.38383374
0.066901788 0.51696837 -0.37991339
0.066851273 0.5186038 -0.37207648
0.066800766 0.52023625 -0.36423975
0.066750258 0.52186561 -0.35640314
0.066724986 0.52369004 -0.35248315
0.066674478 0.52531409 -0.34464681
0.066674456 0.52733433 -0.34464338
0.066649199 0.52915424 -0.3407236
0.066649176 0.53117371 -0.34072018
0.066623911 0.53299129 -0.33680049
0.066623889 0.53500998 -0.33679709
0.066598624 0.5368253 -0.33287749
0.066598602 0.53884321 -0.33287412
0.066598579 0.54086119 -0.33287072
0.066598557 0.54287916 -0.33286732
0.066598535 0.54489714 -0.33286393
0.066598512 0.54691505 -0.3328605
0.06659849 0.54893303 -0.33285704
0.066598468 0.550951 -0.33285362
0.066598445 0.55296892 -0.33285013
0.066598423 0.55498689 -0.33284667
0.066623643 0.55721593 -0.33675897
0.066825524 0.56092942 -0.36808154
0.066598356 0.5610407 -0.33283615
0.066951662 0.56604588 -0.38765213
0.066800214 0.56678969 -0.36415419
0.067178749 0.57203722 -0.42288423
0.067203954 0.57428831 -0.42679524
0.064453125 0.55273438 0
0.064453125 0.5546875 0
0.064453125 0.55664062 0
0.064453125 0.55859375 0
0.064453125 0.56054688 0
0.064453125 0.5625 0
0.064453125 0.56445312 0
0.064453125 0.56640625 0
0.064453125 0.56835938 0
0.064453125 0.5703125 0
0.064453125 0.57226562 0
0.064453125 0.57421875 0
0.064503595 0.57662302 -0.0078299893
0.064528823 0.57880402 -0.011744851
0.06447836 0.58030522 -0.0039149062
0.064453125 0.58203125 0
0.064453125 0.58398438 0
0.066432267 -0.41422474 -0.0039181248
0.06640625 -0.095703125 0
0.070025802 -0.098859958 -0.54506207
0.069999769 -0.096764386 -0.54114175
0.069843538 -0.094494194 -0.51761478
0.070103943 -0.092784628 -0.55682898
0.069973744 -0.09055426 -0.53722322
0.069947712 -0.088463284 -0.53330278
0.06994772 -0.086406007 -0.53330362
0.069921687 -0.084317327 -0.52938312
0.069921687 -0.08226081 -0.52938396
0.069895655 -0.080174431 -0.52546334
0.069895662 -0.078118682 -0.52546412
0.069895662 -0.076062933 -0.52546489
0.06986963 -0.073979609 -0.52154422
0.069869637 -0.071924627 -0.52154493
0.069843598 -0.069843598 -0.51762426
0.069843605 -0.067789376 -0.51762491
0.069843605 -0.065735161 -0.51762551
0.069843613 -0.063680939 -0.51762617
0.069869652 -0.061649695 -0.52154815
0.06986966 -0.059594709 -0.52154875
0.06984362 -0.057518277 -0.51762789
0.069843628 -0.055464055 -0.51762843
0.069843628 -0.053409833 -0.51762897
0.069869675 -0.05137476 -0.52155089
0.069869675 -0.049319774 -0.52155137
0.069869682 -0.047264785 -0.52155185
0.069869682 -0.045209795 -0.52155232
0.069895729 -0.043170892 -0.52547419
0.069895729 -0.041115135 -0.52547461
0.069895729 -0.039059378 -0.52547497
0.069921777 -0.037017412 -0.52939683
0.069921777 -0.034960888 -0.52939719
0.069947824 -0.03291662 -0.533319
0.069947824 -0.030859334 -0.53331929
0.069973864 -0.028812768 -0.53724104
0.069973871 -0.026754715 -0.53724134
0.069999911 -0.024705851 -0.54116303
0.069999911 -0.022647031 -0.54116327
0.069999911 -0.02058821 -0.5411635
0.069999918 -0.018529389 -0.54116368
0.069973879 -0.016464442 -0.53724241
0.069921792 -0.014395664 -0.52939957
0.069843672 -0.012325354 -0.51763529
0.069817632 -0.010267299 -0.5137139
0.069791593 -0.0082107754 -0.50979251
0.069791593 -0.0061580818 -0.50979257
0.069791593 -0.0041053877 -0.50979263
0.069765553 -0.0020519281 -0.50587118
0.069765553 0 -0.50587118
0.069739513 0.0020511621 -0.50194973
0.069739513 0.0041023241 -0.50194967
0.069739506 0.0061534862 -0.50194961
0.069739506 0.0082046483 -0.50194955
0.069739506 0.01025581 -0.50194949
0.069739506 0.012306971 -0.50194937
0.069713466 0.014352772 -0.49802777
0.069713466 0.016403168 -0.49802762
0.069713466 0.018453564 -0.49802747
0.069713466 0.020503959 -0.49802729
0.069713458 0.022554355 -0.49802709
0.069687419 0.024595559 -0.4941054
0.069687419 0.026645189 -0.49410516
0.069687419 0.028694818 -0.49410489
0.069687411 0.030744446 -0.49410462
0.069713451 0.032806329 -0.4980258
0.069713451 0.034856725 -0.49802548
0.069713451 0.036907122 -0.49802515
0.069713444 0.038957514 -0.49802479
0.069739483 0.041023225 -0.50194591
0.069739483 0.043074384 -0.5019455
0.069739476 0.045125544 -0.50194508
0.069765516 0.047194321 -0.50586611
0.069791555 0.049264628 -0.50978708
0.069791548 0.051317316 -0.50978661
0.069817588 0.053389922 -0.51370752
0.069817588 0.055443376 -0.51370704
0.06981758 0.057496831 -0.51370651
0.06981758 0.059550289 -0.51370591
0.069817573 0.061603744 -0.51370537
0.069843613 0.063680939 -0.51762617
0.069869645 0.065759666 -0.52154696
0.069921724 0.0678652 -0.52938908
0.069947757 0.069947757 -0.53330982
0.069973797 0.072031848 -0.53723049
0.069739431 0.073841743 -0.50193733
0.066770814 0.072662361 -0.054899316
0.066536449 0.074364267 -0.019606872
0.06640625 0.13476562 0
0.06640625 0.13671875 0
0.06640625 0.18164062 0
0.066458315 0.28342515 -0.0078398213
0.06640625 0.28515625 0
0.07012859 0.30320305 -0.56054097
0.070050478 0.30492562 -0.5487783
0.070050463 0.30698586 -0.5487752
0.070024408 0.30893123 -0.54485226
0.069998361 0.31087506 -0.54092938
0.069998339 0.31293374 -0.54092622
0.069972292 0.3148753 -0.53700334
0.069972269 0.31693321 -0.53700024
0.069972247 0.31899112 -0.53699702
0.069972225 0.32104903 -0.53699386
0.069998235 0.32322714 -0.5409103
0.070128351 0.3258906 -0.56050515
0.069894075 0.3268576 -0.5252254
0.06640625 0.3125 0
0.06640625 0.31445312 0
0.066484332 0.33242166 -0.011757967
0.069763675 0.35087028 -0.50558931
0.06986776 0.35344869 -0.52126306
0.06989377 0.35563594 -0.52517891
0.06989374 0.3576915 -0.52517545
0.069867693 0.35961312 -0.52125275
0.069815621 0.36139849 -0.51341093
0.069789574 0.3633163 -0.50948834
0.069763526 0.36523256 -0.50556576
0.069763497 0.3672843 -0.50556237
0.069711424 0.36906049 -0.49772075
0.069711402 0.37111071 -0.49771735
0.069685355 0.3730216 -0.49379489
0.069659308 0.37493098 -0.48987249
0.06963326 0.37683883 -0.48595011
0.069581188 0.37860355 -0.47810882
0.069555148 0.38050756 -0.47418657
0.069529101 0.38241005 -0.47026432
0.069503054 0.38431099 -0.46634212
0.069477007 0.38621041 -0.46241996
0.069424942 0.38796291 -0.45457906
0.069398895 0.38985848 -0.45065701
0.069372848 0.39175257 -0.44673499
0.06939885 0.39394054 -0.45065039
0.069424853 0.39613003 -0.45456576
0.069450848 0.39832106 -0.45848101
0.069424808 0.4002136 -0.454559
0.069398761 0.40210459 -0.45063701
0.069372714 0.40399405 -0.44671509
0.069320649 0.40572971 -0.43887466
0.069268584 0.40746227 -0.43103433
0.069268562 0.40949947 -0.43103102
0.069268547 0.41153663 -0.43102771
0.069294542 0.41372919 -0.43494281
0.06929452 0.4157671 -0.43493944
0.069294497 0.41780505 -0.43493605
0.069294475 0.41984299 -0.43493265
0.069268435 0.4217225 -0.43101093
0.069268413 0.42375967 -0.43100753
0.069242366 0.42563692 -0.42708591
0.069242343 0.42767331 -0.42708248
0.069242321 0.4297097 -0.42707905
0.069190264 0.43142164 -0.41923937
0.069190241 0.43345651 -0.41923597
0.069190219 0.43549135 -0.41923258
0.069190197 0.43752623 -0.41922915
0.069164149 0.43939579 -0.4153077
0.069164127 0.44142988 -0.41530427
0.069164105 0.44346398 -0.41530085
0.069164082 0.44549808 -0.41529739
0.06916406 0.44753215 -0.41529393
0.06913802 0.44939715 -0.4113726
0.069137998 0.45143047 -0.41136914
0.069137976 0.45346376 -0.41136566
0.069111936 0.45532569 -0.40744442
0.069111913 0.45735824 -0.40744093
0.069085874 0.45921788 -0.40351975
0.069085851 0.46124965 -0.40351629
0.069059812 0.46310696 -0.3995952
0.069059789 0.46513799 -0.39959171
0.069059767 0.46716902 -0.39958823
0.069059744 0.46920002 -0.39958471
0.069033705 0.47105351 -0.39566374
0.069033682 0.47308376 -0.39566022
0.06903366 0.47511399 -0.3956567
0.069033638 0.47714424 -0.39565319
0.069007598 0.47899392 -0.39173231
0.069007576 0.48102337 -0.39172879
0.069007553 0.48305285 -0.39172524
0.069007523 0.48508233 -0.3917217
0.068981491 0.48692816 -0.38780093
0.068981469 0.48895687 -0.38779739
0.068981446 0.49098557 -0.38779381
0.068981417 0.49301428 -0.38779023
0.068981394 0.49504295 -0.38778666
0.068981372 0.49707165 -0.38778305
0.068981349 0.49910033 -0.38777941
0.06895531 0.50094008 -0.38385886
0.068955287 0.50296801 -0.38385522
0.068955265 0.50499588 -0.38385162
0.068955243 0.50702381 -0.38384795
0.068929203 0.50885975 -0.37992752
0.068903171 0.51069409 -0.37600714
0.068929158 0.512914 -0.37992024
0.068955146 0.51513547 -0.38383323
0.068929106 0.51696831 -0.37991288
0.068877064 0.5186038 -0.37207603
0.068799019 0.52003962 -0.36032274
0.068746977 0.52166826 -0.35248619
0.068720944 0.52349192 -0.34856623
0.068694919 0.52531409 -0.34464636
0.068694897 0.52733433 -0.34464294
0.068668865 0.52915418 -0.34072316
0.068668842 0.53117371 -0.34071976
0.06864281 0.53299123 -0.33680007
0.068642788 0.53500998 -0.33679667
0.068616763 0.53682524 -0.33287707
0.06861674 0.53884321 -0.3328737
0.068616718 0.54086119 -0.3328703
0.068616696 0.54287916 -0.33286691
0.068616673 0.54489708 -0.33286348
0.068616651 0.54691505 -0.33286008
0.068616629 0.54893303 -0.33285663
0.068616606 0.55095094 -0.33285317
0.068616576 0.55296892 -0.33284971
0.068616554 0.55498683 -0.33284625
0.068538524 0.55637157 -0.32109538
0.068668514 0.55944645 -0.34067076
0.069136545 0.56529289 -0.41115004
0.06887649 0.56519234 -0.37198895
0.069162488 0.5695734 -0.41505694
0.069006443 0.57031798 -0.39155897
0.068642393 0.56932807 -0.33673713
0.06658826 0.55424935 -0.02740854
0.06640625 0.5546875 0
0.06640625 0.55664062 0
0.06640625 0.55859375 0
0.06640625 0.56054688 0
0.06640625 0.5625 0
0.06640625 0.56445312 0
0.06640625 0.56640625 0
0.06640625 0.56835938 0
0.066536248 0.57142889 -0.019575603
0.066484243 0.57293779 -0.011745231
0.06640625 0.57421875 0
0.066458248 0.57662302 -0.0078299791
0.06640625 0.578125 0
0.06640625 0.58007812 0
0.066614226 0.58385408 -0.031318858
0.06640625 0.58398438 0
0.06838616 -0.41422474 -0.0039181197
0.068493403 -0.095890768 -0.019606488
0.072138995 -0.098933473 -0.55290395
0.072112195 -0.096836373 -0.54898363
0.07192456 -0.09452942 -0.5215354
0.072165817 -0.092784621 -0.5568282
0.072031796 -0.090554252 -0.5372225
0.072031803 -0.088496216 -0.5372234
0.072031803 -0.086438172 -0.53722429
0.072005004 -0.084348723 -0.5333038
0.072005011 -0.082291439 -0.53330457
0.071978211 -0.080204293 -0.52938402
0.071978219 -0.078147776 -0.52938479
0.071951419 -0.076062925 -0.52546418
0.071924612 -0.073979601 -0.52154356
0.071924619 -0.071924619 -0.52154428
0.071924627 -0.069869637 -0.52154493
0.071924627 -0.067814648 -0.52154559
0.071924634 -0.065759666 -0.52154624
0.071924634 -0.063704677 -0.5215469
0.071924642 -0.061649691 -0.5215475
0.071924642 -0.059594706 -0.52154809
0.071924649 -0.05753972 -0.52154863
0.071924649 -0.055484731 -0.52154917
0.071924657 -0.053429745 -0.5215497
0.071924657 -0.051374756 -0.52155024
0.071924664 -0.04931977 -0.52155071
0.071951471 -0.047282398 -0.52547264
0.071951479 -0.045226641 -0.52547306
0.071951479 -0.043170888 -0.52547348
0.071978286 -0.04113045 -0.52939534
0.071978293 -0.039073929 -0.52939576
0.071978293 -0.037017409 -0.52939612
0.072005101 -0.034973908 -0.53331792
0.072005108 -0.03291662 -0.53331828
0.072005108 -0.030859333 -0.53331858
0.072031915 -0.028812766 -0.53724033
0.072031915 -0.026754713 -0.53724062
0.07205873 -0.02470585 -0.54116231
0.07205873 -0.022647029 -0.54116255
0.072085537 -0.020595867 -0.54508424
0.072085537 -0.018536281 -0.54508448
0.07205873 -0.016470568 -0.54116315
0.071978316 -0.014395663 -0.52939892
0.071924701 -0.012329948 -0.52155608
0.071871087 -0.010267298 -0.51371324
0.071871087 -0.0082138386 -0.51371336
0.07184428 -0.0061580813 -0.50979191
0.07184428 -0.0041053877 -0.50979197
0.071817473 -0.0020519278 -0.50587052
0.071817473 0 -0.50587052
0.071790665 0.0020511618 -0.50194907
0.071790665 0.0041023237 -0.50194901
0.071790665 0.0061534857 -0.50194895
0.071790665 0.0082046473 -0.50194889
0.071790665 0.010255809 -0.50194883
0.071790665 0.012306971 -0.50194871
0.071763858 0.014352771 -0.49802712
0.071763858 0.016403167 -0.49802697
0.071763858 0.018453563 -0.49802682
0.071763851 0.020503959 -0.49802664
0.071763851 0.022554353 -0.49802643
0.071737044 0.024595559 -0.49410474
0.071737044 0.026645187 -0.4941045
0.071763851 0.028705539 -0.49802572
0.071763843 0.030755933 -0.49802545
0.071763843 0.032806329 -0.49802515
0.071763843 0.034856722 -0.49802482
0.071790643 0.036920905 -0.50194597
0.071790643 0.038972065 -0.50194561
0.07181745 0.041038543 -0.50586665
0.071817443 0.043090466 -0.50586629
0.071817443 0.045142394 -0.50586587
0.071844243 0.047211934 -0.50978684
0.071844243 0.049264625 -0.50978643
0.07187105 0.051336464 -0.51370734
0.071871042 0.053389918 -0.51370686
0.071871042 0.055443373 -0.51370633
0.071871035 0.057496827 -0.51370579
0.071871035 0.059550285 -0.51370525
0.071897835 0.061626714 -0.51762611
0.071897827 0.063680932 -0.51762545
0.071951441 0.065784171 -0.52546763
0.071978241 0.0678652 -0.52938843
0.072005041 0.069947757 -0.5333091
0.072031841 0.072031841 -0.53722978
0.072085455 0.074145034 -0.54507184
0.071978219 0.07609126 -0.52938557
0.068359375 0.07421875 0
0.068386182 0.13677236 -0.0039211106
0.068359375 0.13867188 0
0.068412982 0.18178307 -0.0078416606
0.068546951 0.28398022 -0.027439337
0.072191216 0.30114049 -0.56054336
0.07205721 0.30264029 -0.54094094
0.072110787 0.30492559 -0.54877758
0.072083965 0.30687174 -0.54485464
0.072083943 0.3089312 -0.54485154
0.072057128 0.31087506 -0.54092866
0.072030313 0.31281736 -0.53700578
0.072030291 0.31487527 -0.53700262
0.072030269 0.31693318 -0.53699952
0.072030246 0.31899109 -0.53699636
0.072030224 0.321049 -0.53699315
0.071923025 0.32262614 -0.5213114
0.071869418 0.32443908 -0.51346904
0.072110541 0.3275879 -0.54874223
0.068520136 0.31323493 -0.023517381
0.068359375 0.31445312 0
0.068359375 0.33203125 0
0.071761966 0.35060844 -0.49775007
0.071949482 0.35358033 -0.52518165
0.07194946 0.35563591 -0.52517819
0.071949437 0.3576915 -0.52517474
0.071922623 0.35961312 -0.5212521
0.071869016 0.36139849 -0.51341027
0.071842201 0.36331627 -0.50948769
0.071815386 0.36523253 -0.50556511
0.071788572 0.36714727 -0.50164258
0.071761757 0.36906049 -0.49772009
0.071761735 0.37111068 -0.4977167
0.07173492 0.3730216 -0.49379423
0.071708106 0.37493098 -0.48987183
0.071681298 0.3768388 -0.48594946
0.071627691 0.37860352 -0.4781082
0.071600877 0.38050753 -0.47418594
0.07157407 0.38241002 -0.47026369
0.071547255 0.38431099 -0.4663415
0.071520448 0.38621041 -0.46241936
0.071493633 0.38810828 -0.45849723
0.071440034 0.38985848 -0.45065641
0.071440011 0.3918995 -0.45065311
0.071439989 0.39394051 -0.4506498
0.071466751 0.39613 -0.45456517
0.071493521 0.39832103 -0.45848042
0.071466707 0.40021357 -0.4545584
0.0714399 0.40210456 -0.45063642
0.071413085 0.40399402 -0.44671449
0.071359493 0.40572968 -0.43887407
0.071332678 0.40761533 -0.43495226
0.071305871 0.40949944 -0.43103045
0.071305849 0.4115366 -0.43102714
0.071332611 0.41372916 -0.43494225
0.071359374 0.41592321 -0.43885723
0.071332566 0.41780505 -0.43493548
0.071332544 0.41984296 -0.43493208
0.071332522 0.4218809 -0.43492866
0.071305715 0.42375967 -0.43100697
0.071278907 0.42563689 -0.42708534
0.071278878 0.42767328 -0.42708191
0.071278855 0.42970967 -0.42707852
0.071225263 0.43142161 -0.41923884
0.071225241 0.43345648 -0.41923544
0.071225218 0.43549135 -0.41923201
0.071225196 0.4375262 -0.41922858
0.071198389 0.43939579 -0.41530716
0.071198367 0.44142985 -0.41530374
0.071198344 0.44346395 -0.41530031
0.071198322 0.44549805 -0.41529685
0.071198292 0.44753215 -0.41529337
0.071171492 0.44939712 -0.41137207
0.071171463 0.45143044 -0.41136858
0.07117144 0.45346376 -0.41136509
0.071144633 0.45532566 -0.40744388
0.071144611 0.45735821 -0.40744039
0.071117811 0.45921785 -0.40351924
0.071117781 0.46124962 -0.40351576
0.071090981 0.46310696 -0.39959466
0.071090959 0.46513796 -0.39959118
0.071090929 0.46716899 -0.39958769
0.071090907 0.46919999 -0.3995842
0.071064107 0.47105348 -0.3956632
0.071064077 0.47308373 -0.39565971
0.071064055 0.47511399 -0.3956562
0.071064033 0.47714421 -0.39565265
0.071037225 0.47899389 -0.3917318
0.071037203 0.48102337 -0.39172828
0.071037181 0.48305282 -0.39172474
0.071037158 0.4850823 -0.39172116
0.071010351 0.48692814 -0.38780043
0.071010329 0.48895684 -0.38779688
0.071010306 0.49098554 -0.3877933
0.071010284 0.49301425 -0.38778973
0.071010254 0.49504292 -0.38778615
0.071010232 0.49707162 -0.38778254
0.070983432 0.49891213 -0.38386196
0.07098341 0.50094002 -0.38385835
0.07098338 0.50296795 -0.38385475
0.070983358 0.50499588 -0.38385111
0.070956558 0.50683254 -0.37993065
0.070956536 0.50885969 -0.37992704
0.070929736 0.51069409 -0.37600666
0.070956483 0.512914 -0.37991974
0.070956461 0.51494116 -0.37991607
0.070956431 0.51696831 -0.37991241
0.070876084 0.51840794 -0.36815894
0.070822515 0.52003962 -0.36032227
0.070768945 0.52166826 -0.35248572
0.070742145 0.52349192 -0.34856579
0.070715353 0.52531403 -0.34464592
0.070715331 0.52733433 -0.34464249
0.070688531 0.52915418 -0.34072271
0.070688508 0.53117365 -0.34071931
0.070661716 0.53299123 -0.33679962
0.070661694 0.53500998 -0.33679622
0.070634902 0.53682524 -0.33287662
0.070634879 0.53884321 -0.33287326
0.070608079 0.54065615 -0.32895374
0.070608057 0.54267335 -0.32895041
0.070608035 0.54469055 -0.32894701
0.070608012 0.54670775 -0.32894364
0.07060799 0.54872495 -0.32894024
0.070607968 0.55074215 -0.32893682
0.070607945 0.55275935 -0.32893342
0.070607923 0.55477649 -0.32892996
0.070741735 0.55784911 -0.3485055
0.070795245 0.56029379 -0.35633332
0.07100936 0.56401724 -0.38765523
0.070821963 0.56455225 -0.36024144
0.071062841 0.56850272 -0.39547828
0.071009278 0.57010305 -0.38764289
0.071223378 0.57385695 -0.41896307
0.068412907 0.55316722 -0.0078310017
0.068359375 0.5546875 0
0.068359375 0.55664062 0
0.068359375 0.55859375 0
0.068359375 0.56054688 0
0.068359375 0.5625 0
0.068359375 0.56445312 0
0.068359375 0.56640625 0
0.068359375 0.56835938 0
0.068359375 0.5703125 0
0.0684129 0.57271373 -0.0078301439
0.068359375 0.57421875 0
0.0684129 0.57662302 -0.0078299688
0.068359375 0.578125 0
0.068359375 0.58007812 0
0.068466425 0.58294266 -0.015659409
0.068359375 0.58398438 0
0.070340052 -0.41422474 -0.0039181146
0.0703125 -0.095703125 0
0.074007101 -0.09867613 -0.5254541
0.074172534 -0.096836366 -0.54898292
0.074144974 -0.094740793 -0.54506254
0.074089833 -0.092612296 -0.5372209
0.074117415 -0.090587951 -0.54114312
0.074089848 -0.088496208 -0.53722268
0.074089855 -0.086438164 -0.53722358
0.074062288 -0.084348716 -0.53330308
0.074062295 -0.082291439 -0.53330386
0.074034728 -0.080204286 -0.5293833
0.074034736 -0.078147769 -0.52938408
0.074034736 -0.07609126 -0.52938485
0.074007168 -0.074007168 -0.52546424
0.074007176 -0.071951419 -0.52546495
0.073979609 -0.06986963 -0.52154422
0.073979616 -0.067814648 -0.52154487
0.073979616 -0.065759659 -0.52154553
0.073979624 -0.063704677 -0.52154619
0.074007198 -0.061672665 -0.52546817
0.074007206 -0.059616912 -0.52546877
0.073979631 -0.057539716 -0.52154791
0.073979639 -0.055484727 -0.52154851
0.074007213 -0.053449653 -0.52547044
0.074007221 -0.0513939 -0.52547097
0.074007221 -0.049338147 -0.52547145
0.074007228 -0.047282394 -0.52547193
0.074007228 -0.045226637 -0.52547234
0.074034803 -0.04318697 -0.52939421
0.074034803 -0.04113045 -0.52939463
0.07403481 -0.039073925 -0.52939504
0.07403481 -0.037017405 -0.5293954
0.074062385 -0.034973904 -0.53331721
0.074062392 -0.032916617 -0.53331757
0.074089967 -0.030870818 -0.53723931
0.074089967 -0.028812764 -0.53723961
0.074089967 -0.026754711 -0.53723991
0.074089967 -0.024696657 -0.53724015
0.074117541 -0.022647027 -0.54116184
0.074145116 -0.020595867 -0.54508352
0.074145123 -0.018536281 -0.5450837
0.074145123 -0.016476694 -0.54508388
0.074062407 -0.014401023 -0.53331965
0.074007258 -0.012334543 -0.52547687
0.073952116 -0.010271127 -0.51763403
0.073924541 -0.0082138376 -0.51371264
0.073896967 -0.0061580809 -0.50979125
0.073896967 -0.0041053873 -0.50979125
0.0738694 -0.0020519276 -0.50586987
0.073841825 0 -0.50194836
0.073841825 0.0020511618 -0.50194836
0.073841825 0.0041023237 -0.50194836
0.073841825 0.0061534853 -0.5019483
0.073814251 0.0082015833 -0.49802676
0.073814251 0.010251979 -0.49802667
0.073814251 0.012302374 -0.49802655
0.073814251 0.014352771 -0.49802643
0.073814251 0.016403167 -0.49802631
0.073814243 0.018453561 -0.49802613
0.073814243 0.020503957 -0.49802595
0.073814243 0.022554353 -0.49802575
0.073814243 0.024604747 -0.49802554
0.073814243 0.026655143 -0.4980253
0.073814236 0.028705537 -0.49802503
0.073814236 0.030755932 -0.49802476
0.07384181 0.032818582 -0.50194591
0.073841803 0.034869742 -0.50194561
0.073841803 0.036920901 -0.50194526
0.073841803 0.038972061 -0.5019449
0.07386937 0.041038539 -0.50586599
0.07386937 0.043090463 -0.50586557
0.073896937 0.045159239 -0.50978661
0.073896937 0.04721193 -0.50978619
0.07389693 0.049264621 -0.50978571
0.073924497 0.05133646 -0.51370668
0.073924497 0.053389914 -0.51370615
0.073924489 0.055443369 -0.51370567
0.073924489 0.057496823 -0.51370513
0.073924482 0.059550278 -0.51370454
0.073952056 0.06162671 -0.51762539
0.073979624 0.063704677 -0.52154619
0.074007191 0.065784171 -0.52546692
0.074034758 0.067865193 -0.52938771
0.074062325 0.069947749 -0.53330839
0.074089892 0.072031841 -0.53722906
0.074089885 0.074089885 -0.53722835
0.0703125 0.072265625 0
0.070422791 0.074335165 -0.015685454
0.07053306 0.13714762 -0.03136884
0.07047791 0.18206793 -0.023524949
0.0703125 0.28320312 0
0.07403332 0.30024624 -0.52918357
0.074281357 0.30331552 -0.56445932
0.074143529 0.30481228 -0.54485697
0.074143507 0.30687171 -0.54485393
0.074115925 0.30881634 -0.54093099
0.074088335 0.31075943 -0.53700817
0.07408832 0.31281734 -0.53700507
0.074088298 0.31487525 -0.53700191
0.074060716 0.31681526 -0.53307909
0.074060693 0.31887242 -0.53307593
0.074088231 0.32104897 -0.53699243
0.074170887 0.32346746 -0.54874814
0.074143305 0.32540673 -0.5448252
0.074033044 0.32697925 -0.52914357
0.074170813 0.32964808 -0.54873818
0.0703125 0.31445312 0
0.0703125 0.33203125 0
0.070532963 0.33503157 -0.031354293
0.074032739 0.35371196 -0.52910024
0.074032709 0.35576829 -0.52909672
0.074032687 0.35782465 -0.52909327
0.074005105 0.35974705 -0.52517056
0.073922411 0.36139846 -0.51340955
0.073867276 0.36318076 -0.50556785
0.073839694 0.36509627 -0.50164533
0.073839672 0.36714724 -0.50164193
0.07381209 0.36906046 -0.49771944
0.073812068 0.37111068 -0.49771601
0.073784485 0.37302157 -0.49379358
0.073756903 0.37493095 -0.48987117
0.073729329 0.37683877 -0.4859488
0.073674195 0.37860349 -0.47810757
0.073646612 0.3805075 -0.47418529
0.073619038 0.38240999 -0.47026306
0.073591456 0.38431096 -0.46634087
0.073591433 0.38635504 -0.46633753
0.073536307 0.38810828 -0.4584966
0.073508725 0.39000463 -0.45457453
0.07348115 0.39189947 -0.45065251
0.07350868 0.39408821 -0.45456788
0.073508658 0.39613 -0.45456454
0.073536187 0.398321 -0.45847979
0.073508613 0.40021354 -0.45455778
0.073508583 0.40225533 -0.45455438
0.073453456 0.40399402 -0.44671389
0.073425882 0.40588194 -0.442792
0.073370755 0.4076153 -0.43495166
0.07334318 0.40949941 -0.43102989
0.07337071 0.41169119 -0.43494499
0.07337068 0.41372913 -0.43494165
0.07339821 0.41592321 -0.43885663
0.073398188 0.4179619 -0.43885323
0.073370613 0.41984296 -0.43493149
0.073370591 0.42188087 -0.43492806
0.073343016 0.42375964 -0.43100637
0.073342986 0.42579681 -0.43100297
0.073315419 0.42767325 -0.42708135
0.073315389 0.42970964 -0.42707792
0.07326027 0.43142158 -0.41923827
0.073260248 0.43345645 -0.41923487
0.073260218 0.43549132 -0.41923144
0.073260196 0.43752617 -0.41922802
0.073232621 0.43939576 -0.4153066
0.073232599 0.44142985 -0.41530317
0.073232576 0.44346392 -0.41529974
0.073232554 0.44549802 -0.41529629
0.073232524 0.44753212 -0.41529283
0.073232502 0.44956619 -0.41528934
0.073204935 0.45143041 -0.41136804
0.073204905 0.45346373 -0.41136456
0.073177338 0.45532563 -0.40744331
0.073177308 0.45735818 -0.40743986
0.073149741 0.45921782 -0.40351868
0.073149718 0.46124959 -0.40351522
0.073122144 0.46310693 -0.39959413
0.073122121 0.46513793 -0.39959064
0.073122099 0.46716896 -0.39958715
0.073122069 0.46919996 -0.39958364
0.073094502 0.47105345 -0.39566267
0.07309448 0.4730837 -0.39565918
0.073094457 0.47511396 -0.39565566
0.073094428 0.47714418 -0.39565212
0.07306686 0.47899386 -0.39173126
0.073066838 0.48102334 -0.39172775
0.073066808 0.48305279 -0.3917242
0.073066786 0.48508227 -0.39172065
0.073039219 0.48692814 -0.38779989
0.073039196 0.48895681 -0.38779634
0.073039167 0.49098551 -0.3877928
0.073039144 0.49301422 -0.38778922
0.073039114 0.49504292 -0.38778561
0.073039092 0.49707159 -0.38778201
0.073011525 0.4989121 -0.38386142
0.073011503 0.50094002 -0.38385782
0.073011473 0.50296795 -0.38385421
0.07301145 0.50499588 -0.38385057
0.072983883 0.50683254 -0.37993014
0.072983861 0.50885969 -0.3799265
0.072956294 0.51069403 -0.37600616
0.072983809 0.512914 -0.37991923
0.072983779 0.5149411 -0.37991557
0.072956219 0.51677322 -0.37599528
0.072901115 0.51840794 -0.36815846
0.072818473 0.51984298 -0.35640523
0.072763376 0.52147084 -0.34856874
0.072763346 0.52349186 -0.34856531
0.072735786 0.52531403 -0.34464544
0.072708227 0.52713466 -0.34072563
0.072708204 0.52915412 -0.34072226
0.072708182 0.53117365 -0.34071884
0.072680622 0.53299123 -0.33679917
0.072680593 0.53500992 -0.33679578
0.072653033 0.53682518 -0.33287618
0.07265301 0.53884315 -0.33287281
0.072625451 0.54065615 -0.3289533
0.072625428 0.54267335 -0.32894996
0.072625406 0.54469055 -0.32894659
0.072625384 0.54670775 -0.32894319
0.072625361 0.54872495 -0.3289398
0.072625332 0.55074209 -0.3289364
0.072625309 0.55275929 -0.32893297
0.072625287 0.55477649 -0.32892954
0.072652794 0.55700475 -0.33284187
0.072900563 0.56092936 -0.36808008
0.072928071 0.56316674 -0.3719919
0.073175825 0.56711268 -0.40722892
0.073010609 0.56786031 -0.38373086
0.072845392 0.56859875 -0.36023331
0.073285863 0.5740726 -0.42287803
0.0703125 0.55273438 0
0.0703125 0.5546875 0
0.0703125 0.55664062 0
0.0703125 0.55859375 0
0.0703125 0.56054688 0
0.0703125 0.5625 0
0.0703125 0.56445312 0
0.0703125 0.56640625 0
0.0703125 0.56835938 0
0.0703125 0.5703125 0
0.070367552 0.57271373 -0.0078301327
0.0703125 0.57421875 0
0.070367552 0.57662302 -0.0078299576
0.0703125 0.578125 0
0.070505187 0.58166778 -0.027404236
0.0703125 0.58203125 0
0.070477657 0.58535606 -0.023488814
0.072293937 -0.41422474 -0.003918109
0.072435647 -0.095928289 -0.023527721
0.076176196 -0.098823175 -0.54113859
0.076261215 -0.09687236 -0.55290347
0.076204546 -0.094740793 -0.54506183
0.076176219 -0.092646748 -0.54114145
0.076176226 -0.090587944 -0.54114234
0.076147892 -0.088496201 -0.53722191
0.076147899 -0.086438157 -0.5372228
0.076147906 -0.084380113 -0.53722364
0.076119572 -0.082291432 -0.53330314
0.076091245 -0.080204278 -0.52938259
0.076091245 -0.078147769 -0.52938336
0.076091252 -0.076091252 -0.52938414
0.076062918 -0.074007168 -0.52546346
0.076062925 -0.071951419 -0.52546418
0.076062933 -0.069895662 -0.52546489
0.076062933 -0.067839913 -0.52546555
0.07606294 -0.065784164 -0.5254662
0.076062948 -0.063728414 -0.52546686
0.076062948 -0.061672661 -0.52546746
0.076062955 -0.059616908 -0.52546805
0.076062955 -0.057561155 -0.52546865
0.076062962 -0.055505402 -0.52546918
0.076062962 -0.053449649 -0.52546972
0.07606297 -0.051393896 -0.5254702
0.076091312 -0.049356524 -0.52939212
0.076091312 -0.047300007 -0.5293926
0.076091319 -0.045243487 -0.52939308
0.076091319 -0.043186966 -0.52939349
0.076119661 -0.041145764 -0.53331536
0.076119661 -0.039088476 -0.53331572
0.076119669 -0.037031189 -0.53331614
0.076119669 -0.034973901 -0.53331649
0.076119669 -0.032916617 -0.53331679
0.076148011 -0.030870816 -0.5372386
0.076148018 -0.028812762 -0.53723884
0.076148018 -0.026754709 -0.53723913
0.076148018 -0.024696656 -0.53723937
0.07617636 -0.022647025 -0.54116112
0.076233037 -0.020603525 -0.5490042
0.076233037 -0.018543173 -0.54900444
0.076204702 -0.016476693 -0.54508317
0.076148026 -0.014406383 -0.53724039
0.076091349 -0.012339137 -0.52939761
0.076034673 -0.010274956 -0.52155477
0.075977996 -0.0082138376 -0.51371193
0.075977996 -0.006160378 -0.51371199
0.075949661 -0.0041053868 -0.5097906
0.075921319 -0.0020519276 -0.50586915
0.075892985 0 -0.5019477
0.075892985 0.0020511616 -0.50194764
0.075892977 0.0041023232 -0.50194764
0.075892977 0.0061534848 -0.50194758
0.075864643 0.0082015833 -0.49802607
0.075864643 0.010251978 -0.49802598
0.075864643 0.012302374 -0.49802586
0.075864643 0.01435277 -0.49802575
0.075864635 0.016403165 -0.4980256
0.075864635 0.018453561 -0.49802545
0.075864635 0.020503955 -0.49802527
0.075864635 0.022554351 -0.49802506
0.075864635 0.024604745 -0.49802485
0.075864628 0.026655141 -0.49802461
0.07589297 0.028716259 -0.50194579
0.075892963 0.030767418 -0.5019455
0.075892963 0.032818578 -0.5019452
0.075892963 0.034869738 -0.5019449
0.075921297 0.036934685 -0.50586599
0.075921297 0.038986612 -0.50586563
0.075949632 0.041053854 -0.50978673
0.075949624 0.043106545 -0.50978631
0.075949624 0.045159236 -0.50978589
0.075949624 0.047211926 -0.50978547
0.075949617 0.049264617 -0.509785
0.075949617 0.051317308 -0.50978452
0.075949609 0.053369995 -0.50978404
0.075977944 0.055443365 -0.51370496
0.075977944 0.05749682 -0.51370442
0.076006278 0.059572488 -0.51762521
0.076006271 0.061626706 -0.51762468
0.076062948 0.063728414 -0.52546686
0.076091275 0.065808676 -0.52938759
0.076119609 0.067890465 -0.53330833
0.076119609 0.069947749 -0.53330767
0.076147936 0.072031833 -0.53722835
0.076176271 0.074117452 -0.54114896
0.072265625 0.072265625 0
0.072265625 0.07421875 0
0.072265625 0.13671875 0
0.07229396 0.13872625 -0.0039210892
0.072265625 0.18164062 0
0.072265625 0.28125 0
0.072435588 0.28386921 -0.023519369
0.07637307 0.301364 -0.56838155
0.076089777 0.30230263 -0.52917987
0.076203063 0.30481225 -0.54485625
0.076174714 0.30675763 -0.54093337
0.076174691 0.30881631 -0.54093027
0.076146342 0.3107594 -0.53700739
0.07614632 0.31281731 -0.53700429
0.07611797 0.31475809 -0.53308147
0.076117948 0.31681526 -0.53307831
0.076117925 0.31887239 -0.53307521
0.076089576 0.32081011 -0.52915239
0.076089554 0.3228665 -0.52914923
0.076061204 0.32480192 -0.52522647
0.076061182 0.32685751 -0.52522331
0.076372735 0.33026049 -0.56833518
0.072265625 0.31445312 0
0.072265625 0.33398438 0
0.076089196 0.35371193 -0.52909946
0.076089174 0.35576829 -0.52909601
0.076089144 0.35782462 -0.52909249
0.076060794 0.35974702 -0.52516979
0.075975806 0.36139843 -0.51340884
0.075919136 0.36318073 -0.50556713
0.075890794 0.36509624 -0.50164461
0.075862445 0.36701021 -0.49772215
0.075862423 0.36906043 -0.49771875
0.075862393 0.37111065 -0.49771532
0.075834051 0.37302154 -0.49379289
0.075805701 0.37493092 -0.48987049
0.075777359 0.37683877 -0.48594812
0.075720698 0.37860346 -0.47810689
0.075692348 0.3805075 -0.47418463
0.075664006 0.38240996 -0.47026241
0.075635664 0.38431093 -0.46634021
0.075635634 0.38635501 -0.46633688
0.075607292 0.38825366 -0.46241474
0.075550631 0.39000461 -0.4545739
0.075550608 0.39204639 -0.45457059
0.075550586 0.39408818 -0.45456725
0.075550556 0.39612997 -0.45456392
0.075578853 0.39832097 -0.45847917
0.075550511 0.40021351 -0.45455715
0.075550489 0.4022553 -0.45455375
0.075522147 0.40414554 -0.4506318
0.075465485 0.40588194 -0.44279137
0.075408824 0.40761527 -0.43495107
0.075408801 0.40965322 -0.43494773
0.075408779 0.41169116 -0.43494439
0.075437069 0.41388446 -0.43885943
0.075437047 0.41592318 -0.43885604
0.075437024 0.41796187 -0.43885261
0.075436994 0.42000058 -0.43884918
0.075408652 0.42188087 -0.43492746
0.07540863 0.42391878 -0.43492401
0.075380288 0.42579678 -0.43100238
0.075380266 0.42783394 -0.43099892
0.075351924 0.42970964 -0.42707732
0.075295269 0.43142155 -0.41923767
0.075295247 0.43345642 -0.41923428
0.075295225 0.43549129 -0.41923088
0.075295195 0.43752617 -0.41922745
0.07526686 0.43939573 -0.41530603
0.075266838 0.44142982 -0.4153026
0.075266808 0.44346392 -0.41529918
0.075266786 0.44549799 -0.41529572
0.075266764 0.44753209 -0.41529223
0.075266734 0.44956619 -0.41528875
0.075238399 0.45143038 -0.41136748
0.075238369 0.4534637 -0.41136399
0.075210035 0.45532563 -0.40744275
0.0751817 0.45718601 -0.4035216
0.07518167 0.45921779 -0.40351814
0.075181648 0.46124959 -0.40351465
0.075153314 0.4631069 -0.39959356
0.075153291 0.46513793 -0.3995901
0.075153261 0.46716893 -0.39958659
0.075153239 0.46919993 -0.3995831
0.075124905 0.47105345 -0.39566213
0.075124875 0.47308367 -0.39565861
0.075124852 0.47511393 -0.3956551
0.075124823 0.47714415 -0.39565158
0.075096488 0.47899383 -0.39173073
0.075096466 0.48102331 -0.39172721
0.075096443 0.48305279 -0.39172366
0.075096413 0.48508224 -0.39172009
0.075068079 0.48692811 -0.38779935
0.075068057 0.48895681 -0.38779581
0.075068027 0.49098548 -0.38779226
0.075068004 0.49301419 -0.38778868
0.075067975 0.49504289 -0.38778508
0.075039648 0.49688414 -0.38386449
0.075039618 0.49891207 -0.38386089
0.075039595 0.50093997 -0.38385731
0.075039566 0.50296789 -0.38385367
0.075011238 0.50480533 -0.37993321
0.075011209 0.50683248 -0.3799296
0.075011186 0.50885963 -0.379926
0.075011156 0.51088679 -0.37992236
0.075011134 0.51291394 -0.37991869
0.075011104 0.5149411 -0.37991503
0.074982777 0.51677316 -0.37599474
0.074897841 0.51821208 -0.36424136
0.074841209 0.51984298 -0.35640475
0.074784577 0.52147084 -0.34856826
0.07475625 0.52329373 -0.34464836
0.07475622 0.52531397 -0.34464496
0.0747279 0.5271346 -0.34072515
0.074727871 0.52915412 -0.34072179
0.074699543 0.53097242 -0.33680207
0.074699521 0.53299117 -0.3367987
0.074671194 0.53480721 -0.33287907
0.074671172 0.53682518 -0.33287573
0.074671149 0.53884315 -0.33287233
0.074642822 0.54065615 -0.32895285
0.0746428 0.54267335 -0.32894948
0.074642777 0.54469049 -0.32894611
0.074642748 0.54670769 -0.32894275
0.074642725 0.54872489 -0.32893935
0.074642703 0.55074209 -0.32893592
0.074642673 0.55275929 -0.32893249
0.074642651 0.55477649 -0.32892907
0.074755818 0.55763799 -0.34458876
0.074868977 0.56050563 -0.36024809
0.075123623 0.5644424 -0.39548558
0.075010411 0.56561905 -0.37981877
0.075123563 0.56850266 -0.39547718
0.075123534 0.5705328 -0.39547297
0.075038619 0.57191592 -0.38372213
0.075180061 0.57502592 -0.40329546
0.072265625 0.5546875 0
0.072265625 0.55664062 0
0.072265625 0.55859375 0
0.072265625 0.56054688 0
0.072265625 0.5625 0
0.072265625 0.56445312 0
0.072265625 0.56640625 0
0.072265625 0.56835938 0
0.072265625 0.5703125 0
0.072378792 0.57316178 -0.015660245
0.072491959 0.5760172 -0.03132014
0.072265625 0.57617188 0
0.072322205 0.57857764 -0.0078298589
0.072265625 0.58007812 0
0.075236164 0.60595614 -0.41105834
0.072265625 0.58398438 0
0.07421875 -0.4140625 0
0.07421875 -0.095703125 0
0.078118593 -0.098676115 -0.52545261
0.078264117 -0.096800357 -0.54506004
0.078235023 -0.094705552 -0.54113972
0.078205928 -0.092612281 -0.53721935
0.078235038 -0.090587936 -0.54114157
0.078205936 -0.088496193 -0.53722113
0.078205943 -0.086438149 -0.53722203
0.078176849 -0.084348701 -0.53330153
0.078176856 -0.082291424 -0.53330237
0.078147754 -0.080204278 -0.52938181
0.078147762 -0.078147762 -0.52938259
0.078147769 -0.076091245 -0.52938336
0.078147769 -0.074034736 -0.52938408
0.078147776 -0.071978219 -0.52938479
0.078118682 -0.069895662 -0.52546412
0.078118682 -0.067839913 -0.52546483
0.078118689 -0.065784156 -0.52546549
0.078118697 -0.063728407 -0.52546608
0.078147799 -0.061695632 -0.52938807
0.078147806 -0.059639115 -0.52938867
0.078118704 -0.057561152 -0.52546787
0.078118712 -0.055505399 -0.52546841
0.078118712 -0.053449646 -0.52546895
0.078147821 -0.051413041 -0.52939087
0.078147829 -0.049356524 -0.52939135
0.078147829 -0.047300003 -0.52939183
0.078147836 -0.045243483 -0.5293923
0.078176938 -0.043203045 -0.53331417
0.078176945 -0.041145761 -0.53331459
0.078176945 -0.039088473 -0.53331494
0.078176953 -0.037031189 -0.53331536
0.078176953 -0.034973901 -0.53331572
0.078206062 -0.032928865 -0.53723747
0.078206062 -0.030870814 -0.53723782
0.078206062 -0.02881276 -0.53723812
0.07820607 -0.026754707 -0.53723836
0.078235172 -0.024705844 -0.54116011
0.078264281 -0.02265545 -0.54508179
0.078293383 -0.020603523 -0.54900342
0.078322493 -0.018550064 -0.55292511
0.078293391 -0.016482819 -0.54900384
0.078206077 -0.014406382 -0.53723961
0.078147866 -0.012339137 -0.52939683
0.078089662 -0.010274955 -0.52155399
0.078031451 -0.0082138367 -0.51371121
0.078031451 -0.0061603775 -0.51371127
0.078002349 -0.0041053868 -0.50978982
0.077973239 -0.0020519274 -0.50586843
0.077944137 0 -0.50194699
0.077944137 0.0020511616 -0.50194693
0.077944137 0.0041023232 -0.50194693
0.077973239 0.0061557824 -0.50586832
0.077944137 0.0082046455 -0.50194681
0.077944137 0.010255807 -0.50194675
0.077944137 0.012306969 -0.50194663
0.077944137 0.01435813 -0.50194651
0.07794413 0.016409291 -0.50194633
0.07794413 0.018460453 -0.50194621
0.07794413 0.020511614 -0.50194603
0.07794413 0.022562774 -0.50194579
0.07794413 0.024613936 -0.50194556
0.077944122 0.026665095 -0.50194532
0.077944122 0.028716257 -0.50194508
0.077944122 0.030767417 -0.50194478
0.077973224 0.032830831 -0.50586593
0.077973224 0.034882758 -0.50586563
0.077973217 0.036934681 -0.50586528
0.077973217 0.038986608 -0.50586492
0.078002319 0.04105385 -0.50978601
0.078002311 0.043106541 -0.50978559
0.078002311 0.045159232 -0.50978518
0.078002311 0.047211923 -0.50978476
0.078002304 0.049264614 -0.50978428
0.078002304 0.051317304 -0.5097838
0.078002296 0.053369995 -0.50978333
0.078002296 0.055422682 -0.50978279
0.078031391 0.057496816 -0.51370364
0.078060493 0.059572484 -0.5176245
0.078089595 0.06164968 -0.52154529
0.078118697 0.063728407 -0.52546608
0.078147791 0.065808669 -0.52938682
0.078176893 0.067890458 -0.53330755
0.078176886 0.069947742 -0.5333069
0.078205988 0.072031826 -0.53722757
0.078147769 0.074034736 -0.52938408
0.074364267 0.072407313 -0.019606791
0.074247852 0.074247852 -0.0039213528
0.074247852 0.13872625 -0.0039210836
0.07433515 0.18192549 -0.015683256
0.07421875 0.28125 0
0.078495413 0.29952195 -0.57622367
0.078029901 0.29979908 -0.5135026
0.07837899 0.30320296 -0.56053787
0.078262597 0.30481222 -0.54485548
0.07823348 0.3067576 -0.5409326
0.078233458 0.30881628 -0.5409295
0.078204349 0.31075937 -0.53700662
0.078175232 0.31270093 -0.5330838
0.078175209 0.31475806 -0.5330807
0.078175187 0.31681523 -0.5330776
0.078175165 0.31887236 -0.53307444
0.078233324 0.32116836 -0.54091054
0.078175113 0.32298666 -0.53306812
0.078116909 0.32480189 -0.5252257
0.078320518 0.32770956 -0.55265951
0.078145951 0.32903558 -0.52913886
0.074247837 0.31457639 -0.0039195232
0.074393287 0.31715035 -0.023516996
0.074364193 0.33463886 -0.019596377
