ply
format ascii 1.0
comment PCL generated
element vertex 1386
property float x
property float y
property float z
element camera 0
property float view_px
property float view_py
property float view_pz
property float x_axisx
property float x_axisy
property float x_axisz
property float y_axisx
property float y_axisy
property float y_axisz
property float z_axisx
property float z_axisy
property float z_axisz
property float focal
property float scalex
property float scaley
property float centerx
property float centery
property int viewportx
property int viewporty
property float k1
property float k2
end_header
0.20584475 -0.53462458 -0.46378487
0.20588502 -0.53186965 -0.46407127
0.20592515 -0.52911323 -0.46435666
0.20596515 -0.52635539 -0.46464103
0.2065198 -0.52490449 -0.46858519
0.20655981 -0.52213728 -0.46886975
0.2071151 -0.52066433 -0.47281849
0.20715512 -0.51788783 -0.47310314
0.20719501 -0.51510984 -0.47338673
0.20723474 -0.51233029 -0.47366923
0.20727432 -0.50954938 -0.47395068
0.20731373 -0.50676692 -0.474231
0.20735301 -0.50398302 -0.47451025
0.20739213 -0.50119764 -0.4747884
0.20743108 -0.49841079 -0.47506544
0.20798805 -0.49686036 -0.4790262
0.20802701 -0.49406412 -0.47930312
0.20806578 -0.49126643 -0.47957891
0.2081044 -0.48846728 -0.47985357
0.20814286 -0.48566669 -0.48012707
0.20818116 -0.48286465 -0.4803994
0.2082193 -0.48006117 -0.48067057
0.20825727 -0.47725624 -0.48094055
0.20829506 -0.47444987 -0.48120937
0.20885353 -0.47282121 -0.48518068
0.20889129 -0.47000539 -0.48544917
0.20945027 -0.46835411 -0.4894242
0.20948797 -0.46552885 -0.4896923
0.20952551 -0.46270216 -0.48995915
0.2090406 -0.45872799 -0.48651093
0.20907749 -0.45590511 -0.48677331
0.20963703 -0.45421359 -0.49075225
0.21019696 -0.45250735 -0.4947339
0.21023388 -0.44966692 -0.49499646
0.21079427 -0.44793782 -0.49898148
0.21083111 -0.44508788 -0.49924341
0.21139196 -0.44333592 -0.5032317
0.21142869 -0.44047645 -0.50349295
0.21198998 -0.43870151 -0.50748438
0.21255162 -0.43691167 -0.51147825
0.21258834 -0.43403453 -0.51173931
0.21209931 -0.43009025 -0.50826174
0.2115351 -0.20272113 -0.50424963
0.2120944 -0.20031138 -0.50822681
0.21211214 -0.19738214 -0.50835299
0.21158794 -0.19395562 -0.50462532
0.21160506 -0.19103234 -0.50474703
0.21107996 -0.18762663 -0.50101304
0.21055436 -0.18423507 -0.49727541
0.21057047 -0.18132457 -0.49739003
0.21004401 -0.17795394 -0.49364626
0.21060196 -0.17550163 -0.49761394
0.21061733 -0.1725892 -0.49772328
0.21063246 -0.16967615 -0.49783081
0.21064733 -0.16676247 -0.49793661
0.21120489 -0.16427046 -0.50190139
0.21121937 -0.16134813 -0.50200438
0.2112336 -0.15842521 -0.50210565
0.21124759 -0.15550169 -0.50220507
0.21126132 -0.15257762 -0.50230271
0.21127479 -0.14965297 -0.50239855
0.21128802 -0.14672779 -0.50249255
0.21130098 -0.14380206 -0.50258476
0.21131369 -0.1408758 -0.50267518
0.21132615 -0.13794902 -0.50276375
0.21133836 -0.13502172 -0.50285047
0.21135029 -0.13209394 -0.50293541
0.21136197 -0.12916565 -0.50301856
0.21137342 -0.1262369 -0.5030998
0.21138458 -0.12330768 -0.50317925
0.21193989 -0.12068799 -0.50712812
0.21195063 -0.11775035 -0.50720447
0.21196111 -0.11481226 -0.50727898
0.21197133 -0.11187375 -0.50735164
0.21198128 -0.10893483 -0.50742245
0.21362531 -0.10681266 -0.5191133
0.21309011 -0.10358547 -0.51530743
0.21364434 -0.1008876 -0.51924866
0.21419844 -0.098174289 -0.52318895
0.21475241 -0.095445514 -0.52712822
0.21530622 -0.092701294 -0.53106654
0.22187446 -0.086284511 -0.57777393
0.22133744 -0.083001539 -0.57395512
0.21081908 0.48605511 -0.49915791
0.20870082 0.48406997 -0.48409477
0.2107397 0.49172598 -0.49859348
0.21173792 0.49699593 -0.50569183
0.21014088 0.49616599 -0.49433517
0.2101009 0.49898967 -0.49405092
0.20850624 0.49809822 -0.48271102
0.20794895 0.49965513 -0.47874811
0.20687455 0.49994683 -0.47110787
0.20631847 0.50146848 -0.46715352
0.20576283 0.50297582 -0.46320239
0.20520766 0.50446886 -0.45925453
0.20465297 0.50594759 -0.45530996
0.20461477 0.50869507 -0.4550384
0.20457645 0.51144111 -0.45476583
0.20402254 0.51288998 -0.45082694
0.20398423 0.51562679 -0.45055452
0.20394577 0.51836216 -0.45028108
0.20390719 0.52109617 -0.45000666
0.20335428 0.52250755 -0.4460749
0.20280187 0.52390486 -0.44214663
0.20224996 0.52528811 -0.43822193
0.20221177 0.52799737 -0.43795037
0.20268635 0.53205168 -0.44132519
0.20316017 0.53611714 -0.44469452
0.2036332 0.54019362 -0.44805834
0.20308159 0.54155087 -0.44413573
0.20201887 0.5415228 -0.43657863
0.20095733 0.54146832 -0.42902985
0.19989695 0.54138756 -0.42148942
0.19985904 0.54406071 -0.42121983
0.20084162 0.54952502 -0.4282071
0.20182277 0.55501264 -0.43518421
0.20229284 0.55911493 -0.43852684
0.20225279 0.56181329 -0.43824208
0.20221263 0.56451023 -0.43795645
0.20166369 0.56577867 -0.43405285
0.2016236 0.56846654 -0.43376788
0.20107543 0.56971371 -0.42986971
0.20103545 0.57239264 -0.42958546
0.20099537 0.57507008 -0.42930037
0.20044819 0.57628852 -0.42540932
0.19990157 0.57749343 -0.42152226
0.19935551 0.57868475 -0.41763923
0.19881004 0.57986259 -0.41376027
0.19826514 0.58102697 -0.40988541
0.19822608 0.58366567 -0.40960771
0.19768199 0.58480924 -0.40573865
0.19713849 0.58593941 -0.40187374
0.19709982 0.58856195 -0.40159872
0.19655715 0.58967143 -0.39773977
0.19651863 0.59228528 -0.3974658
0.19597681 0.59337419 -0.39361283
0.19543558 0.59444988 -0.38976413
0.19489497 0.59551239 -0.38591972
0.19435495 0.59656173 -0.38207966
0.19431736 0.59914517 -0.38181227
0.19427966 0.60172725 -0.38154423
0.19374079 0.60274911 -0.37771222
0.19320253 0.60375792 -0.37388465
0.19316527 0.60632432 -0.37361974
0.19312795 0.60888946 -0.37335426
0.19309053 0.61145329 -0.37308815
0.1925537 0.61242777 -0.36927077
0.19251648 0.6149832 -0.36900604
0.19247916 0.61753732 -0.36874071
0.19194353 0.61848474 -0.36493179
0.19140854 0.61941934 -0.36112741
0.19137171 0.62195808 -0.3608655
0.1913348 0.62449557 -0.36060306
0.19179462 0.62866014 -0.36387283
0.19126077 0.62956667 -0.36007655
0.19122364 0.63210034 -0.35981247
0.19118643 0.63463271 -0.35954788
0.19114915 0.63716382 -0.35928276
0.19061682 0.63803685 -0.35549736
0.19008516 0.6388973 -0.35171664
0.18955415 0.6397453 -0.34794068
0.18754223 0.6355598 -0.33363363
0.18652019 0.63468671 -0.32636574
0.18599267 0.63547498 -0.32261458
0.18546584 0.63625091 -0.31886825
0.18543208 0.6387105 -0.31862813
0.18539827 0.64116901 -0.31838763
0.18536438 0.64362633 -0.31814671
0.18533044 0.64608252 -0.31790534
0.18529645 0.64853752 -0.31766358
0.18477187 0.64926779 -0.31393325
0.18424799 0.64998591 -0.31020787
0.18421456 0.6524266 -0.30997023
0.18418109 0.6548661 -0.3097322
0.18414757 0.65730453 -0.30949381
0.18411399 0.65974182 -0.30925503
0.18408036 0.66217798 -0.3090159
0.18404667 0.66461301 -0.30877638
0.18352544 0.66527975 -0.30506977
0.18349203 0.66770715 -0.30483225
0.18345858 0.67013341 -0.30459437
0.18342508 0.67255861 -0.30435613
0.18339153 0.67498273 -0.30411753
0.18335792 0.67740571 -0.30387861
0.18283907 0.67802823 -0.30018893
0.18280576 0.68044364 -0.29995206
0.18325685 0.684668 -0.30315986
0.18322307 0.68708652 -0.30291963
0.18270557 0.68768346 -0.29923955
0.18412198 0.6955719 -0.30931181
0.18984289 0.72245771 -0.34999394
0.19028564 0.72678542 -0.35314226
0.18928228 0.72558206 -0.34600729
0.19213137 0.73917204 -0.36626747
0.18728007 0.72310919 -0.33176938
0.18868418 0.73115122 -0.34175423
0.18912552 0.73548812 -0.34489259
0.19048515 0.74606681 -0.35456103
0.19188169 0.75420165 -0.36449203
0.18848941 0.74348599 -0.34036911
0.18749382 0.742163 -0.33328936
0.18793334 0.74651295 -0.33641481
0.18789455 0.7489686 -0.33613908
0.19024114 0.76096457 -0.35282585
0.18877026 0.75770289 -0.34236631
0.19158834 0.77167529 -0.36240599
0.19059446 0.77031928 -0.35533845
0.18667263 0.76224655 -0.32744977
0.18758298 0.76856917 -0.33392346
0.20459287 -0.59135747 -0.43495271
0.20360902 -0.58572459 -0.42805231
0.20467652 -0.58599168 -0.43553939
0.20471817 -0.58330655 -0.43583155
0.2047597 -0.58061999 -0.43612286
0.20531537 -0.57938308 -0.44002011
0.20535702 -0.57668751 -0.44031218
0.20436868 -0.57111251 -0.4333804
0.20750098 -0.57702327 -0.4553493
0.20810205 -0.57299334 -0.45956504
0.20607968 -0.56460184 -0.44538072
0.20870395 -0.56893271 -0.46378663
0.20616204 -0.55917919 -0.44595835
0.2083143 -0.55930966 -0.46105376
0.20783842 -0.55518484 -0.45771605
0.20736174 -0.55107093 -0.45437276
0.20740287 -0.54833907 -0.45466119
0.20796278 -0.54697061 -0.45858827
0.20852321 -0.54558814 -0.46251899
0.20856458 -0.54283935 -0.46280915
0.20860581 -0.54008901 -0.46309832
0.20864691 -0.53733724 -0.46338651
0.20868786 -0.53458393 -0.46367368
0.20872866 -0.53182918 -0.46395987
0.20876932 -0.52907294 -0.46424505
0.20933133 -0.52762967 -0.46818691
0.20937203 -0.52486414 -0.4684723
0.20941256 -0.52209711 -0.46875665
0.20997542 -0.52062398 -0.47270429
0.21001597 -0.5178476 -0.47298875
0.21005638 -0.51506972 -0.47327211
0.21009663 -0.51229042 -0.47355443
0.21013673 -0.50950956 -0.47383565
0.21017666 -0.50672728 -0.47411579
0.21021645 -0.50394356 -0.47439486
0.21025608 -0.50115836 -0.47467279
0.21029556 -0.49837166 -0.47494963
0.2108601 -0.49682108 -0.47890925
0.21089956 -0.49402502 -0.479186
0.21093886 -0.49122748 -0.47946158
0.21097799 -0.4884285 -0.47973603
0.21101695 -0.48562807 -0.48000932
0.21105576 -0.48282617 -0.48028147
0.21109439 -0.48002285 -0.48055243
0.21113285 -0.47721809 -0.48082224
0.21117115 -0.4744119 -0.48109084
0.21173722 -0.47278312 -0.48506105
0.21177547 -0.46996748 -0.48532933
0.21234207 -0.46831605 -0.48930326
0.21238026 -0.46549097 -0.48957112
0.21241827 -0.46266448 -0.4898378
0.21192674 -0.45869076 -0.48639032
0.21196413 -0.45586804 -0.48665249
0.21253127 -0.45417643 -0.4906303
0.21309881 -0.45247009 -0.49461085
0.21313623 -0.44962984 -0.4948732
0.21370423 -0.44790065 -0.49885711
0.21374156 -0.4450509 -0.49911883
0.21431004 -0.44329885 -0.503106
0.21434726 -0.44043955 -0.50336701
0.21491618 -0.43866453 -0.5073573
0.21548547 -0.43687463 -0.5113501
0.21552265 -0.43399766 -0.51161093
0.21502693 -0.43005386 -0.50813413
0.21604291 -0.2130834 -0.5152598
0.21661057 -0.21067603 -0.51924121
0.21333854 -0.2045712 -0.4962922
0.21502084 -0.20029339 -0.50809139
0.21503882 -0.19736439 -0.50821745
0.21505654 -0.19443469 -0.50834179
0.21452481 -0.19101524 -0.50461233
0.21399255 -0.18760991 -0.50087923
0.21345979 -0.18421872 -0.49714258
0.21347611 -0.18130848 -0.49725708
0.21294247 -0.17793822 -0.49351427
0.21350801 -0.17548604 -0.49748084
0.21352358 -0.17257385 -0.49759007
0.2135389 -0.16966105 -0.49769753
0.21355398 -0.16674763 -0.49780324
0.21411911 -0.16425575 -0.50176692
0.21413378 -0.16133368 -0.50186986
0.21414821 -0.158411 -0.50197101
0.21416238 -0.15548775 -0.50207037
0.21417628 -0.15256393 -0.50216788
0.21418993 -0.14963955 -0.50226367
0.21420333 -0.14671461 -0.5023576
0.21421647 -0.14378913 -0.50244975
0.21422935 -0.14086314 -0.50254005
0.21424197 -0.13793661 -0.50262856
0.21425432 -0.13500957 -0.50271523
0.21426642 -0.13208205 -0.50280011
0.21427827 -0.12915403 -0.50288314
0.21428984 -0.12622552 -0.50296438
0.21430115 -0.12329656 -0.50304377
0.21486402 -0.12067705 -0.50699145
0.21487489 -0.11773967 -0.5070678
0.21488552 -0.11480185 -0.50714225
0.21489586 -0.1118636 -0.50721484
0.21490595 -0.10892493 -0.50728559
0.21657236 -0.10680281 -0.51897329
0.21602987 -0.10357597 -0.51516837
0.21659164 -0.1008783 -0.51910847
0.21715328 -0.098165184 -0.52304769
0.21771479 -0.095436618 -0.52698588
0.21882868 -0.092927247 -0.53479838
0.2288284 -0.078365892 -0.60493344
0.21372963 0.48601532 -0.49903521
0.21474302 0.49126142 -0.5061428
0.21259631 0.48926276 -0.49108645
0.2141349 0.49573699 -0.50187767
0.21461982 0.49979958 -0.50527877
0.21300176 0.49894935 -0.49393019
0.21191061 0.49929622 -0.4862771
0.2108205 0.4996157 -0.47863141
0.20973144 0.49990782 -0.47099316
0.20916779 0.50142968 -0.46703988
0.2086046 0.50293714 -0.46308985
0.20804189 0.50443029 -0.45914307
0.20747963 0.50590926 -0.4551996
0.20744094 0.50865656 -0.45492825
0.20740211 0.51140243 -0.45465586
0.20684066 0.51285148 -0.45071805
0.20680185 0.51558816 -0.45044583
0.20676289 0.51832342 -0.4501726
0.20672379 0.52105725 -0.44989839
0.20616336 0.52246881 -0.4459677
0.20560344 0.5238663 -0.4420405
0.205044 0.52524972 -0.43811688
0.20552555 0.52929866 -0.44149423
0.2054864 0.5320127 -0.44121966
0.2059667 0.53607768 -0.4445883
0.20592695 0.53879517 -0.44430959
0.20536815 0.54014635 -0.44039032
0.20480987 0.54148364 -0.43647474
0.20373386 0.5414297 -0.42892787
0.20317698 0.54273301 -0.42502204
0.20313823 0.54541224 -0.42475033
0.20413391 0.55088192 -0.43173376
0.2046112 0.55497283 -0.4350813
0.20508769 0.5590747 -0.43842331
0.20504713 0.56177294 -0.43813875
0.20500644 0.56446975 -0.43785331
0.20445001 0.56573838 -0.43395078
0.20440941 0.56842619 -0.43366599
0.20385377 0.56967354 -0.42976889
0.20381327 0.57235235 -0.42948481
0.20377265 0.57502967 -0.42919993
0.20321801 0.57624835 -0.42530993
0.20266396 0.57745343 -0.42142388
0.20211047 0.57864505 -0.41754192
0.20155756 0.57982314 -0.41366398
0.20100524 0.58098775 -0.40979016
0.20096567 0.58362633 -0.40951264
0.20041417 0.58477014 -0.4056446
0.19986327 0.58590055 -0.40178072
0.19982408 0.58852297 -0.40150589
0.1997848 0.59114408 -0.40123037
0.19923499 0.59224647 -0.39737415
0.19868578 0.59333563 -0.3935222
0.19813719 0.59441155 -0.38967454
0.1975892 0.5954743 -0.38583115
0.19704184 0.59652394 -0.38199207
0.19700374 0.59910727 -0.38172486
0.19696555 0.60168928 -0.381457
0.19641933 0.60271138 -0.377626
0.19587374 0.60372043 -0.37379941
0.19583601 0.60628682 -0.37353471
0.19579817 0.60885185 -0.37326938
0.19576026 0.61141562 -0.37300348
0.19521613 0.61239034 -0.36918709
0.1951784 0.61494565 -0.36892253
0.1951406 0.61749971 -0.36865738
0.19459768 0.61844742 -0.36484942
0.19405539 0.61938226 -0.36104605
0.19401808 0.62192094 -0.36078432
0.19398068 0.62445837 -0.36052203
0.19444679 0.62862247 -0.36379117
0.19390567 0.62952936 -0.35999587
0.19386804 0.63206291 -0.35973197
0.19383034 0.63459522 -0.35946757
0.19379257 0.63712621 -0.35920262
0.19325298 0.63799959 -0.35541818
0.19271408 0.63886034 -0.35163844
0.19217584 0.63970864 -0.34786341
0.18963583 0.63385123 -0.3300485
0.18910044 0.63465214 -0.3262935
0.18856573 0.63544071 -0.32254326
0.18803172 0.63621694 -0.31879786
0.18799752 0.63867646 -0.31855792
0.18796325 0.64113492 -0.31831756
0.18792892 0.64359218 -0.31807679
0.18789452 0.64604831 -0.3178356
0.18786009 0.6485033 -0.31759399
0.18732835 0.64923388 -0.31386459
0.18679732 0.64995229 -0.3101401
0.18676347 0.65239292 -0.30990264
0.18672955 0.65483236 -0.30966479
0.18669558 0.65727073 -0.30942652
0.18666156 0.65970796 -0.30918792
0.18662748 0.66214406 -0.3089489
0.18659335 0.66457909 -0.30870956
0.18655917 0.66701293 -0.30846983
0.18603116 0.66767347 -0.30476648
0.18599726 0.67009974 -0.30452874
0.18645634 0.67430782 -0.30774853
0.18642195 0.67673719 -0.30750737
0.18638752 0.67916548 -0.30726591
0.18586119 0.67979366 -0.30357438
0.18582705 0.68221438 -0.30333495
0.18628395 0.68644357 -0.30653945
0.18575864 0.68705249 -0.3028551
0.18523407 0.68764973 -0.29917592
0.18666986 0.69553703 -0.30924612
0.19246905 0.72241807 -0.34991986
0.19340658 0.72858644 -0.35649547
0.19531919 0.7384671 -0.36990994
0.19186115 0.72802109 -0.34565628
0.19182147 0.73049819 -0.34537795
0.19226889 0.73483592 -0.34851611
0.19076842 0.73171449 -0.33799216
0.19263422 0.74414867 -0.35107842
0.19162235 0.74286473 -0.34398144
0.19449355 0.75665981 -0.36411908
0.19105761 0.74590981 -0.34002045
0.19053356 0.74647397 -0.33634499
0.19146228 0.75273526 -0.3428587
0.19045494 0.7513839 -0.33579358
0.19089878 0.75575 -0.33890653
0.1918246 0.76204288 -0.34539989
0.19033672 0.75873953 -0.33496439
0.19262423 0.77577424 -0.35100824
0.20790012 -0.59279627 -0.43844408
0.2063836 -0.58568317 -0.42795137
0.20746544 -0.58594972 -0.43543658
0.20750764 -0.58326471 -0.43572849
0.20754971 -0.58057827 -0.43601963
0.20811282 -0.57934111 -0.43991578
0.20815501 -0.57664561 -0.44020763
0.20819707 -0.57394868 -0.44049865
0.2087612 -0.57268274 -0.44440186
0.21141605 -0.57710868 -0.46277049
0.20989116 -0.57010972 -0.45221987
0.21102332 -0.56748164 -0.46005321
0.21115193 -0.55926722 -0.46094301
0.21066961 -0.55514288 -0.45760596
0.2101865 -0.55102944 -0.45426333
0.21022816 -0.54829776 -0.45455158
0.21079558 -0.54692906 -0.45847756
0.21136354 -0.54554641 -0.4624072
0.21193202 -0.54414976 -0.46634042
0.2119741 -0.54139334 -0.46663165
0.21148883 -0.53729594 -0.46327406
0.21153031 -0.5345428 -0.46356106
0.21157163 -0.53178817 -0.46384701
0.21214102 -0.53035259 -0.46778658
0.21218239 -0.52758867 -0.46807277
0.2122236 -0.52482325 -0.46835792
0.21226467 -0.52205634 -0.46864206
0.21230559 -0.519288 -0.46892515
0.21287616 -0.51780689 -0.47287285
0.21291709 -0.51502913 -0.47315603
0.21295786 -0.51224995 -0.47343811
0.21299846 -0.50946933 -0.47371915
0.21303894 -0.50668716 -0.47399908
0.21307923 -0.50390357 -0.47427791
0.21311937 -0.50111854 -0.47455567
0.21315935 -0.49833199 -0.4748323
0.21373148 -0.49678129 -0.47879082
0.21377145 -0.49398538 -0.47906733
0.21381125 -0.49118802 -0.47934273
0.21385089 -0.48838919 -0.47961697
0.21389036 -0.48558894 -0.47989005
0.21392967 -0.48278722 -0.48016199
0.2139688 -0.47998405 -0.48043275
0.21400777 -0.47717947 -0.48070234
0.2145813 -0.47555855 -0.48467055
0.21462022 -0.47274452 -0.48493984
0.21465896 -0.46992907 -0.48520792
0.21523315 -0.46827754 -0.48918071
0.21527185 -0.46545264 -0.4894484
0.21531035 -0.46262631 -0.48971486
0.21481219 -0.45865306 -0.4862681
0.21485005 -0.45583051 -0.4865301
0.21542481 -0.45413879 -0.49050677
0.2154626 -0.45130679 -0.49076822
0.21603784 -0.44959226 -0.49474835
0.21661347 -0.44786301 -0.49873111
0.21665128 -0.44501343 -0.49899262
0.21722738 -0.44326127 -0.50297862
0.21780385 -0.44149429 -0.50696719
0.21784164 -0.43862709 -0.50722861
0.21841855 -0.43683711 -0.51122028
0.21845622 -0.43396035 -0.51148093
0.21795383 -0.43001699 -0.50800484
0.21789034 -0.20905696 -0.50756562
0.2201329 -0.20823382 -0.52308166
0.21792804 -0.20320317 -0.50782645
0.21850269 -0.20078625 -0.51180232
0.21796471 -0.19734643 -0.50808018
0.21798266 -0.19441697 -0.5082044
0.21744378 -0.19099791 -0.50447589
0.21690437 -0.18759297 -0.50074375
0.21636444 -0.18420216 -0.49700803
0.21638098 -0.18129218 -0.49712244
0.21639726 -0.17838153 -0.49723509
0.21641329 -0.17547023 -0.49734601
0.21642907 -0.17255831 -0.49745515
0.21644458 -0.16964576 -0.49756253
0.21645986 -0.16673258 -0.49766815
0.21703255 -0.16424085 -0.50163066
0.21704742 -0.16131903 -0.50173354
0.21706203 -0.15839662 -0.50183457
0.21707638 -0.15547362 -0.50193387
0.21709047 -0.15255006 -0.50203133
0.2171043 -0.14962593 -0.50212699
0.21711786 -0.14670126 -0.50222087
0.21713117 -0.14377604 -0.50231296
0.21714421 -0.14085031 -0.5024032
0.21715699 -0.13792403 -0.50249159
0.21716951 -0.13499726 -0.50257826
0.21718177 -0.13206999 -0.50266302
0.21719375 -0.12914224 -0.50274599
0.21720549 -0.126214 -0.50282717
0.21777608 -0.12360264 -0.50677502
0.21778736 -0.12066597 -0.5068531
0.21779838 -0.11772885 -0.50692934
0.21780913 -0.1147913 -0.50700372
0.21837907 -0.1121406 -0.51094705
0.21838936 -0.10919468 -0.51101828
0.2195186 -0.10679283 -0.51883143
0.2195285 -0.10383105 -0.51889992
0.21953812 -0.10086887 -0.5189665
0.2201073 -0.09815596 -0.52290457
0.22067633 -0.095427603 -0.52684164
0.22180517 -0.092918389 -0.53465205
0.22799219 -0.086267315 -0.57745951
0.22912115 -0.083598256 -0.58527064
0.22968976 -0.080701806 -0.58920479
0.21659884 0.48881087 -0.49862975
0.21491735 0.49082476 -0.4869957
0.2121736 0.49029306 -0.46801195
0.21479611 0.49925581 -0.48615682
0.21369135 0.49957573 -0.47851315
0.21258768 0.49986833 -0.47087693
0.21201648 0.50139028 -0.46692479
0.21144573 0.50289792 -0.46297586
0.21140622 0.50566077 -0.46270242
0.2108361 0.5071463 -0.45875788
0.21026647 0.50861752 -0.45481664
0.21022713 0.51136327 -0.45454445
0.20965815 0.5128125 -0.45060775
0.20961884 0.515549 -0.45033574
0.20957938 0.51828414 -0.45006269
0.20953977 0.52101779 -0.44978869
0.20897181 0.52242953 -0.44585907
0.20840438 0.5238272 -0.44193301
0.20783745 0.52521086 -0.43801042
0.20832548 0.52925932 -0.44138709
0.20828582 0.53197324 -0.44111273
0.2087726 0.53603774 -0.44448072
0.20873235 0.53875512 -0.44420218
0.20816605 0.54010648 -0.44028401
0.20760028 0.54144394 -0.43636951
0.20703505 0.54276752 -0.4324587
0.20647036 0.54407728 -0.42855161
0.20695534 0.54815197 -0.43190724
0.20743954 0.55223769 -0.43525735
0.20792292 0.55633432 -0.43860188
0.20788196 0.55903393 -0.4383184
0.20784086 0.56173205 -0.43803406
0.20779963 0.56442875 -0.43774882
0.20723575 0.56569761 -0.43384734
0.20771681 0.56981772 -0.43717581
0.20663151 0.56963283 -0.42966673
0.20659049 0.57231152 -0.42938286
0.20654935 0.57498872 -0.42909819
0.20650809 0.57766449 -0.42881268
0.20542577 0.57741296 -0.42132425
0.20486486 0.57860482 -0.41744331
0.20430453 0.57978308 -0.41356644
0.20374478 0.58094794 -0.40969363
0.2037047 0.58358645 -0.40941632
0.2031458 0.58473051 -0.40554932
0.2025875 0.58586115 -0.40168649
0.2025478 0.58848351 -0.40141186
0.20250802 0.59110445 -0.40113652
0.20195082 0.59220713 -0.39728135
0.20139425 0.59329653 -0.39343044
0.20083828 0.59437275 -0.38958377
0.20028293 0.59543574 -0.38574141
0.19972822 0.59648561 -0.38190335
0.19968963 0.59906888 -0.38163632
0.19965094 0.60165077 -0.38136864
0.19909738 0.60267317 -0.37753865
0.19854447 0.60368252 -0.37371308
0.19850624 0.6062488 -0.37344855
0.19846791 0.60881376 -0.37318343
0.19842951 0.61137742 -0.37291768
0.19787806 0.61235237 -0.3691023
0.19783986 0.61490768 -0.36883792
0.19780156 0.61746162 -0.36857295
0.19725133 0.61840957 -0.364766
0.19670177 0.61934477 -0.36096358
0.19666396 0.62188333 -0.36070204
0.19662608 0.6244207 -0.36043996
0.19709849 0.62858438 -0.36370847
0.19655009 0.62949151 -0.35991412
0.19651197 0.632025 -0.35965043
0.19596455 0.63291252 -0.3558628
0.19643553 0.63708818 -0.35912144
0.19588868 0.6379618 -0.35533798
0.19534254 0.63882291 -0.35155919
0.19479707 0.63967144 -0.34778515
0.19222286 0.63381588 -0.32997435
0.19168027 0.63461715 -0.32622027
0.19063179 0.63372189 -0.31896588
0.19059719 0.63618255 -0.31872654
0.19056255 0.63864201 -0.31848678
0.19052783 0.64110041 -0.31824657
0.19049305 0.64355761 -0.31800595
0.19045821 0.64601368 -0.31776494
0.19042331 0.64846861 -0.31752348
0.18988444 0.64919949 -0.313795
0.18934627 0.64991826 -0.31007147
0.18931197 0.65235883 -0.30983415
0.1892776 0.65479821 -0.30959645
0.1892432 0.65723652 -0.30935836
0.18920873 0.65967369 -0.30911991
0.18917422 0.66210973 -0.30888107
0.18964086 0.66630572 -0.31210974
0.18910502 0.66697854 -0.3084023
0.1885699 0.66763937 -0.30469987
0.18903561 0.67184281 -0.3079221
0.18900083 0.67427325 -0.30768144
0.18946527 0.67849052 -0.31089485
0.18893112 0.67913079 -0.30719915
0.18889619 0.68155789 -0.30695748
0.18886122 0.68398392 -0.30671549
0.1888262 0.68640876 -0.30647317
0.18829383 0.68701804 -0.30278972
0.18825911 0.68943536 -0.30254948
0.18921736 0.69550169 -0.3091796
0.19509476 0.7223779 -0.34984481
0.19654028 0.73038614 -0.35984623
0.19451888 0.72550285 -0.34586033
0.19348966 0.72427887 -0.33873928
0.19641504 0.73788357 -0.35897976
0.19538574 0.73665702 -0.35185805
0.19382469 0.73601002 -0.34105733
0.1937847 0.73847687 -0.34078068
0.19669747 0.75223494 -0.3609339
0.19222939 0.73774523 -0.33001959
0.1965699 0.75971609 -0.36005118
0.1970178 0.76410961 -0.36315027
0.19697475 0.76660442 -0.36285231
0.19546248 0.7633602 -0.35238901
0.19395258 0.76008439 -0.34194213
0.19342288 0.76062244 -0.33827728
0.19435951 0.76693213 -0.34475771
0.19187772 0.75973207 -0.32758638
0.19516806 0.78067225 -0.35035202
0.21069425 -0.59275317 -0.43833947
0.20968425 -0.58711588 -0.4314445
0.21078078 -0.58737582 -0.43893018
0.2102965 -0.58322227 -0.43562412
0.21033911 -0.58053595 -0.43591502
0.21090968 -0.57929862 -0.43981013
0.21042398 -0.57515889 -0.43649438
0.21050836 -0.56977594 -0.43707037
0.21116415 -0.56310439 -0.44154724
0.21545017 -0.57166111 -0.47080645
0.21607038 -0.56754488 -0.47504044
0.2139889 -0.55922431 -0.46083084
0.21350017 -0.55510044 -0.45749447
0.21301062 -0.55098748 -0.45415252
0.21305281 -0.54825592 -0.45444053
0.21362774 -0.54688704 -0.45836544
0.21420321 -0.54550421 -0.46229395
0.21424566 -0.54275566 -0.46258369
0.21428795 -0.54000562 -0.46287242
0.21379589 -0.53591502 -0.45951325
0.21437211 -0.53450114 -0.46344694
0.21494885 -0.53307313 -0.46738416
0.2149909 -0.53031087 -0.46767116
0.21503279 -0.52754712 -0.46795714
0.21507452 -0.52478182 -0.46824211
0.21511611 -0.52201509 -0.46852601
0.21515755 -0.51924688 -0.46880889
0.21519883 -0.51647723 -0.4690907
0.21577711 -0.51498806 -0.47303843
0.21581841 -0.512209 -0.47332034
0.21585955 -0.5094285 -0.47360113
0.21590051 -0.50664657 -0.47388086
0.21594132 -0.5038631 -0.47415948
0.21652073 -0.5023281 -0.47811481
0.21656153 -0.49953526 -0.47839341
0.21714154 -0.49797794 -0.48235291
0.21718232 -0.49517572 -0.48263136
0.21722294 -0.49237201 -0.48290867
0.2172634 -0.48956686 -0.48318481
0.21730368 -0.48676023 -0.4834598
0.21734379 -0.48395216 -0.48373359
0.21738373 -0.48114264 -0.48400626
0.2174235 -0.47833169 -0.48427773
0.21746309 -0.47551927 -0.484548
0.2175025 -0.47270542 -0.48481709
0.21754174 -0.46989018 -0.48508495
0.21758081 -0.46707347 -0.48535162
0.21816272 -0.46541378 -0.48932409
0.2176584 -0.46143579 -0.48588133
0.21769692 -0.45861486 -0.48614433
0.21773528 -0.45579249 -0.48640612
0.21831763 -0.45410067 -0.49038166
0.21835589 -0.45126885 -0.49064291
0.21893875 -0.44955423 -0.49462187
0.219522 -0.44782487 -0.49860346
0.21956028 -0.4449755 -0.4988648
0.22014399 -0.44322324 -0.50284964
0.22072808 -0.44145617 -0.50683707
0.22076635 -0.43858916 -0.50709832
0.22135089 -0.43679911 -0.51108879
0.22138904 -0.43392253 -0.5113492
0.22087997 -0.42997968 -0.50787389
0.22135799 -0.21250367 -0.51113719
0.22137761 -0.2095708 -0.51127112
0.22141607 -0.20370279 -0.51153374
0.22143491 -0.20076765 -0.51166236
0.22145349 -0.19783178 -0.5117892
0.220908 -0.19439903 -0.50806522
0.22036196 -0.19098037 -0.50433767
0.2198154 -0.18757582 -0.50060648
0.21983254 -0.18465933 -0.50072348
0.21928507 -0.18127565 -0.49698606
0.21930155 -0.17836526 -0.49709862
0.21931779 -0.17545423 -0.49720946
0.21933377 -0.17254256 -0.49731851
0.21934949 -0.16963026 -0.49742579
0.21936494 -0.16671735 -0.49753132
0.21994522 -0.16422577 -0.50149268
0.21996027 -0.16130421 -0.5015955
0.21997507 -0.15838204 -0.50169647
0.2199896 -0.15545931 -0.50179565
0.22000386 -0.152536 -0.50189304
0.22001787 -0.14961214 -0.50198865
0.2200316 -0.14668773 -0.50208241
0.22004507 -0.14376278 -0.50217438
0.22005829 -0.1408373 -0.50226456
0.22007123 -0.1379113 -0.50235295
0.22008391 -0.13498479 -0.5024395
0.22066256 -0.13239753 -0.5063898
0.2206748 -0.12946256 -0.5064733
0.22068678 -0.12652709 -0.50655502
0.22069848 -0.12359115 -0.50663489
0.22070991 -0.12065475 -0.50671291
0.22072107 -0.1177179 -0.50678909
0.22129872 -0.11507533 -0.51073265
0.22130942 -0.11213011 -0.51080567
0.22131985 -0.10918446 -0.51087683
0.22303103 -0.1070549 -0.52255851
0.22247405 -0.10382123 -0.51875615
0.2224838 -0.10085932 -0.51882273
0.2230605 -0.098146617 -0.52275968
0.22363706 -0.095418476 -0.52669561
0.22534819 -0.093143918 -0.53837699
0.23160823 -0.089555182 -0.58111215
0.23331991 -0.087106101 -0.59279728
0.21842562 0.48636103 -0.49111885
0.21838489 0.48918214 -0.49084085
0.21834399 0.4920018 -0.49056166
0.21768092 0.49921489 -0.48603502
0.21710059 0.50077868 -0.48207334
0.21598199 0.50107819 -0.47443703
0.21486448 0.50135046 -0.46680817
0.21428619 0.50285828 -0.46286038
0.21424617 0.50562096 -0.46258715
0.21366851 0.5071066 -0.45864373
0.21309134 0.508578 -0.45470363
0.21305151 0.51132363 -0.45443162
0.212475 0.51277304 -0.45049605
0.21243519 0.51550937 -0.45022422
0.21239522 0.51824433 -0.44995138
0.21235511 0.52097785 -0.44967756
0.21177965 0.52238983 -0.44574907
0.21120471 0.52378768 -0.44182408
0.21063027 0.52517146 -0.43790263
0.21165901 0.53055859 -0.44492555
0.21161853 0.53327864 -0.4446491
0.21157789 0.53599733 -0.44437173
0.21153712 0.53871453 -0.44409341
0.21096332 0.54006612 -0.44017631
0.21039008 0.54140377 -0.43626291
0.20981736 0.54272759 -0.4323532
0.20977707 0.54542035 -0.43207809
0.21026817 0.54950082 -0.43543074
0.21075846 0.55359226 -0.4387778
0.21124795 0.55769461 -0.44211936
0.21120611 0.56040025 -0.44183373
0.21063398 0.56169063 -0.43792799
0.21059224 0.5643872 -0.43764299
0.21055035 0.56708229 -0.4373571
0.21050836 0.56977594 -0.43707037
0.20993745 0.5710299 -0.43317303
0.20989555 0.57371449 -0.43288699
0.20932546 0.57494724 -0.4289951
0.20928366 0.57762289 -0.42870983
0.20871438 0.57883453 -0.42482352
0.20761867 0.57856405 -0.41734344
0.20705092 0.57974261 -0.41346765
0.20648377 0.5809077 -0.40959591
0.20644318 0.58354604 -0.40931877
0.20587689 0.58469033 -0.40545282
0.20583643 0.58731991 -0.40517667
0.20527099 0.58844352 -0.40131661
0.20523068 0.59106439 -0.40104145
0.20466611 0.59216732 -0.39718732
0.20410216 0.59325695 -0.39333746
0.20353884 0.59433341 -0.38949183
0.20297615 0.5953967 -0.38565049
0.20241408 0.59644681 -0.38181347
0.20237499 0.59902996 -0.38154665
0.20233582 0.60161179 -0.38127914
0.20177492 0.60263443 -0.3774502
0.20121469 0.60364407 -0.37362561
0.20117597 0.60621023 -0.37336129
0.20113716 0.60877514 -0.37309635
0.20109826 0.61133873 -0.37283078
0.20053951 0.61231399 -0.36901641
0.20050082 0.61486918 -0.36875221
0.20046203 0.61742306 -0.36848742
0.19990452 0.61837131 -0.36468148
0.19934767 0.61930674 -0.36088008
0.19930938 0.62184525 -0.36061871
0.19927102 0.6243825 -0.36035681
0.19974971 0.62854576 -0.36362469
0.19919404 0.62945318 -0.35983136
0.19863907 0.63034797 -0.35604265
0.19860075 0.63287443 -0.3557812
0.19856238 0.63539964 -0.35551921
0.19852394 0.6379236 -0.35525671
0.19797054 0.63878495 -0.35147893
0.19741786 0.63963383 -0.34770584
0.19480945 0.63378012 -0.32989925
0.19425969 0.63458163 -0.32614613
0.1931973 0.63368708 -0.31889349
0.19316225 0.63614768 -0.3186543
0.19312716 0.63860714 -0.31841469
0.19309199 0.64106542 -0.31817466
0.19305678 0.64352256 -0.31793422
0.19302149 0.64597857 -0.31769335
0.19298615 0.64843345 -0.31745207
0.19244012 0.64916468 -0.31372455
0.19189481 0.64988381 -0.31000194
0.19186008 0.65232426 -0.30976477
0.19182529 0.65476364 -0.30952725
0.19179043 0.65720189 -0.30928931
0.19175552 0.659639 -0.30905101
0.19172056 0.66207498 -0.30881232
0.19219342 0.66627049 -0.31204042
0.19165047 0.66694361 -0.30833387
0.19110826 0.66760486 -0.3046324
0.19107348 0.67003101 -0.30439496
0.19154495 0.6742382 -0.30761352
0.19201557 0.67845505 -0.31082633
0.19197986 0.68088853 -0.31058246
0.19194408 0.68332094 -0.31033823
0.19140354 0.6839487 -0.30664819
0.19136807 0.68637347 -0.30640605
0.19082864 0.68698311 -0.3027235
0.19028996 0.68758106 -0.2990461
0.19126137 0.69364125 -0.30567759
0.19721773 0.72050208 -0.34633967
0.19968669 0.73218459 -0.36319453
0.20064709 0.73838127 -0.36975074
0.19960138 0.73719442 -0.3626121
0.19655444 0.72856182 -0.34181166
0.19751467 0.73475456 -0.34836683
0.19697356 0.73536795 -0.34467286
0.19788995 0.74406624 -0.35092878
0.19934423 0.7521922 -0.36085659
0.19871755 0.75777626 -0.35657847
0.19817774 0.75836015 -0.35289338
0.19465885 0.74748993 -0.32887101
0.19660421 0.75758153 -0.34215134
0.19805042 0.76579499 -0.35202429
0.1950354 0.75673735 -0.33144167
0.1954903 0.76110893 -0.33454713
0.19594435 0.76548928 -0.33764678
0.21402098 -0.59418982 -0.4418256
0.21246454 -0.58707309 -0.43134007
0.21357541 -0.58733237 -0.43882382
0.21308476 -0.58317935 -0.43551841
0.21312791 -0.58049315 -0.43580911
0.21370593 -0.57925552 -0.43970311
0.21374919 -0.57656032 -0.43999454
0.21763301 -0.57844561 -0.46615922
0.21669333 -0.56739438 -0.45982873
0.21888861 -0.57026243 -0.47461799
0.2173637 -0.56056952 -0.46434495
0.21686891 -0.55643994 -0.46101156
0.21637328 -0.55232126 -0.4576726
0.21641634 -0.54958361 -0.45796272
0.21645926 -0.54684442 -0.45825186
0.21704224 -0.54546142 -0.46217927
0.21708521 -0.54271305 -0.46246877
0.21712804 -0.53996313 -0.46275732
0.21662952 -0.535873 -0.45939884
0.21721326 -0.53445894 -0.46333143
0.21779752 -0.53303075 -0.46726751
0.21784009 -0.53026861 -0.4675543
0.21788251 -0.52750504 -0.46784005
0.21792477 -0.52473992 -0.46812481
0.21796688 -0.52197331 -0.4684085
0.21800885 -0.51920527 -0.46869114
0.21805064 -0.51643574 -0.46897277
0.21863647 -0.5149464 -0.47291937
0.21867828 -0.51216757 -0.47320104
0.21871993 -0.5093872 -0.47348163
0.21876141 -0.50660539 -0.47376114
0.21934822 -0.50507814 -0.4777143
0.21938969 -0.50228697 -0.47799376
0.21943101 -0.49949428 -0.47827211
0.2200186 -0.49793682 -0.48223048
0.22005989 -0.49513474 -0.48250872
0.22010101 -0.49233124 -0.48278582
0.22014198 -0.48952624 -0.48306173
0.22018276 -0.48671979 -0.48333651
0.22022338 -0.4839119 -0.48361012
0.22026382 -0.48110256 -0.48388255
0.22030409 -0.47829175 -0.48415381
0.22089307 -0.47666401 -0.48812178
0.22038408 -0.47266585 -0.48469275
0.22042382 -0.46985078 -0.48496044
0.22046337 -0.46703425 -0.4852269
0.22050275 -0.46421629 -0.48549217
0.22054194 -0.46139693 -0.48575619
0.22058095 -0.45857617 -0.48601902
0.22061977 -0.45575401 -0.48628059
0.22120972 -0.45406204 -0.49025497
0.22124848 -0.45123044 -0.49051601
0.22183892 -0.4495157 -0.49449381
0.22242977 -0.44778624 -0.49847424
0.22246854 -0.44493708 -0.49873537
0.22305986 -0.44318473 -0.50271904
0.22365156 -0.44141757 -0.50670528
0.22369032 -0.43855074 -0.50696629
0.22428247 -0.4367606 -0.51095563
0.2243211 -0.43388423 -0.51121587
0.22380535 -0.42994186 -0.50774133
0.22320576 -0.20264733 -0.50370198
0.22436634 -0.20074883 -0.51152056
0.22438514 -0.19781323 -0.51164728
0.22383252 -0.19438088 -0.50792432
0.22385067 -0.19145122 -0.50804657
0.22329709 -0.18803966 -0.50431728
0.222743 -0.18464223 -0.50058442
0.22218837 -0.18125893 -0.49684799
0.22220507 -0.17834881 -0.49696046
0.22222151 -0.17543803 -0.49707118
0.22223768 -0.17252661 -0.49718013
0.22225359 -0.16961458 -0.49728733
0.22226924 -0.16670193 -0.49739277
0.22285709 -0.16421048 -0.50135303
0.22287233 -0.16128919 -0.50145566
0.22288731 -0.15836729 -0.50155658
0.22290201 -0.15544483 -0.5016557
0.22291645 -0.15252179 -0.50175297
0.22293064 -0.1495982 -0.50184852
0.22294454 -0.14667405 -0.50194222
0.22295819 -0.14374936 -0.50203413
0.22297156 -0.14082414 -0.50212425
0.22355811 -0.13825305 -0.50607568
0.22357105 -0.13531932 -0.50616282
0.22358371 -0.13238509 -0.50624812
0.2235961 -0.12945037 -0.50633162
0.22360821 -0.12651518 -0.50641322
0.22362006 -0.12357951 -0.50649303
0.22363164 -0.12064338 -0.50657099
0.22421701 -0.11800896 -0.51051468
0.22422813 -0.11506443 -0.51058948
0.22423896 -0.11211948 -0.51066244
0.22424951 -0.1091741 -0.51073354
0.22540861 -0.1067725 -0.51854223
0.22541876 -0.10381127 -0.51861066
0.22542864 -0.10084965 -0.51867712
0.22601286 -0.098137163 -0.52261293
0.22717163 -0.095651217 -0.53041941
0.235247 -0.089765303 -0.58482188
0.23469007 -0.083376735 -0.58106995
0.23758242 -0.078152113 -0.60055524
0.23874091 -0.075391866 -0.60835981
0.2229633 0.48993251 -0.50206852
0.22237346 0.4915624 -0.49809489
0.22056501 0.49917343 -0.48591164
0.21997713 0.50073737 -0.48195112
0.21884391 0.50103736 -0.4743169
0.21771181 0.50131011 -0.46669012
0.21767113 0.50408047 -0.466416
0.21708545 0.5055806 -0.46247044
0.21650027 0.50706643 -0.45852813
0.21591558 0.50853801 -0.45458916
0.21587524 0.51128346 -0.45431736
0.21529122 0.51273304 -0.45038292
0.21525089 0.51546925 -0.4501113
0.21521042 0.51820403 -0.44983867
0.21516982 0.52093744 -0.44956505
0.21458684 0.52234954 -0.44563767
0.2140044 0.52374762 -0.44171381
0.21342246 0.52513158 -0.43779346
0.21446469 0.53051794 -0.44481474
0.21442369 0.53323787 -0.44453853
0.21438254 0.53595638 -0.44426134
0.21434127 0.53867346 -0.44398323
0.21375999 0.54002523 -0.44006726
0.21371877 0.54273319 -0.43978959
0.21313824 0.54406339 -0.43587866
0.21255827 0.54537976 -0.43197146
0.21305582 0.54945976 -0.43532339
0.21355255 0.55355066 -0.4386698
0.21404846 0.55765253 -0.44201064
0.2140061 0.56035805 -0.44172525
0.2134265 0.56164867 -0.43782061
0.21338423 0.56434512 -0.43753579
0.21334182 0.56704009 -0.43725014
0.21329929 0.56973362 -0.43696362
0.21272093 0.57098776 -0.43306735
0.21267851 0.57367229 -0.43278152
0.21210097 0.57490528 -0.42889073
0.21205865 0.57758081 -0.42860565
0.21148194 0.57879269 -0.42472044
0.21037191 0.57852274 -0.41724232
0.20979676 0.57970154 -0.41336757
0.2092222 0.58086687 -0.4094969
0.20918109 0.58350515 -0.40921998
0.20860741 0.58464968 -0.4053551
0.20856644 0.5872792 -0.40507916
0.20852536 0.58990729 -0.40480247
0.20848419 0.59253401 -0.40452507
0.20791188 0.59364313 -0.40066954
0.20680955 0.5932169 -0.39324331
0.20623888 0.59429359 -0.38939872
0.20566884 0.59535712 -0.38555843
0.20509943 0.59640753 -0.38172245
0.20505984 0.59899062 -0.38145581
0.20502017 0.60157233 -0.38118851
0.20445196 0.60259527 -0.37736058
0.20388441 0.60360515 -0.37353706
0.2038452 0.60617125 -0.3732729
0.20380589 0.60873604 -0.37300813
0.20376651 0.61129951 -0.37274277
0.20320046 0.61227506 -0.36892942
0.20316127 0.6148302 -0.36866543
0.203122 0.61738396 -0.36840084
0.20255721 0.61833251 -0.36459589
0.20199308 0.61926824 -0.3607955
0.20195432 0.62180668 -0.36053434
0.20191546 0.62434387 -0.36027259
0.20187654 0.62687975 -0.36001033
0.20183752 0.62941438 -0.35974753
0.20127529 0.63030946 -0.35595983
0.2012365 0.63283587 -0.35569853
0.20119764 0.63536096 -0.35543674
0.2011587 0.63788486 -0.35517442
0.20059809 0.63874656 -0.35139763
0.20003816 0.63959575 -0.34762555
0.19739562 0.63374388 -0.32982317
0.19683866 0.63454568 -0.32607102
0.19576237 0.63365185 -0.31882018
0.19572689 0.63611239 -0.31858116
0.19569135 0.6385718 -0.31834173
0.19565575 0.64103001 -0.31810185
0.19562007 0.6434871 -0.31786156
0.19558434 0.64594305 -0.31762084
0.19554855 0.64839786 -0.31737974
0.19499539 0.64912939 -0.31365317
0.19444296 0.64984882 -0.30993155
0.19440778 0.65228927 -0.30969453
0.19437255 0.65472859 -0.30945715
0.19433725 0.65716678 -0.30921939
0.1943019 0.65960383 -0.30898124
0.1942665 0.66203976 -0.30874273
0.19423103 0.66447461 -0.30850384
0.19368139 0.66514266 -0.30480096
0.19364622 0.66756988 -0.30456403
0.19361101 0.66999596 -0.30432677
0.19408867 0.67420274 -0.30754471
0.19456547 0.67841911 -0.31075692
0.19452931 0.68085259 -0.3105132
0.19449309 0.68328488 -0.31026915
0.19394548 0.68391299 -0.30658004
0.19339862 0.68452936 -0.30289605
0.19285254 0.68513405 -0.29921716
0.19281735 0.68754601 -0.29897997
0.19380149 0.69360536 -0.30561009
0.19932708 0.71862656 -0.34283507
0.20182885 0.73030174 -0.35968909
0.20229417 0.73464721 -0.36282384
0.20174326 0.73530114 -0.35911253
0.20068587 0.73408777 -0.351989
0.20064376 0.73657382 -0.35170537
0.19857582 0.73159516 -0.33777398
0.19900028 0.73839581 -0.34063351
0.2009801 0.74838638 -0.35397115
0.20043254 0.74898475 -0.35028237
0.20076589 0.76079702 -0.35252807
0.19867057 0.75808507 -0.33841228
0.19662151 0.75285339 -0.32460803
0.21682079 -0.5941453 -0.44171748
0.21524423 -0.5870297 -0.43123436
0.21636942 -0.58728844 -0.43871611
0.21641359 -0.58459777 -0.43900982
0.21645764 -0.5819056 -0.43930271
0.21704344 -0.58066171 -0.443198
0.21654536 -0.57651687 -0.43988597
0.21880443 -0.57684803 -0.45490739
0.21884927 -0.57412404 -0.45520553
0.22020632 -0.56052518 -0.46422905
0.21970512 -0.55639607 -0.46089634
0.21920307 -0.55227786 -0.45755807
0.21924667 -0.54954034 -0.45784795
0.21929012 -0.54680133 -0.45813689
0.2198806 -0.54541808 -0.46206316
0.21992411 -0.54266983 -0.46235245
0.21941961 -0.53857541 -0.45899794
0.22001067 -0.53716892 -0.46292812
0.22005373 -0.5344162 -0.46321443
0.22009665 -0.53166205 -0.46349978
0.22068861 -0.53022587 -0.46743596
0.22073156 -0.52746242 -0.46772149
0.22077434 -0.52469748 -0.46800601
0.22081697 -0.52193105 -0.46828952
0.22085945 -0.51916313 -0.46857196
0.22090177 -0.51639378 -0.46885335
0.22149514 -0.51490426 -0.47279879
0.22153746 -0.51212555 -0.47308025
0.22157963 -0.50934535 -0.47336063
0.22217381 -0.50782585 -0.47731155
0.22221598 -0.50503629 -0.47759193
0.22225797 -0.50224531 -0.47787118
0.2222998 -0.4994528 -0.47814932
0.22289494 -0.49789518 -0.48210654
0.22293673 -0.49509329 -0.48238456
0.22297838 -0.49228993 -0.48266143
0.22301984 -0.48948511 -0.48293716
0.22306113 -0.48667884 -0.4832117
0.22310226 -0.48387113 -0.4834851
0.22314319 -0.48106194 -0.48375732
0.22318396 -0.47825134 -0.48402837
0.22378053 -0.47662345 -0.48799518
0.22382124 -0.4738034 -0.4882659
0.22330517 -0.46981087 -0.48483437
0.22334521 -0.46699452 -0.48510063
0.22338508 -0.46417677 -0.48536569
0.22342475 -0.46135759 -0.4856295
0.22346424 -0.45853701 -0.48589212
0.22350354 -0.45571503 -0.48615348
0.22410108 -0.45402297 -0.49012667
0.22414032 -0.45119154 -0.49038753
0.22473836 -0.44947672 -0.49436414
0.2253368 -0.44774714 -0.49834341
0.22537604 -0.44489816 -0.49860433
0.22597498 -0.44314572 -0.50258684
0.22657429 -0.44137847 -0.50657183
0.22661351 -0.43851185 -0.50683272
0.22721328 -0.43672162 -0.51082081
0.22725239 -0.43384546 -0.51108086
0.22672997 -0.4299036 -0.5076071
0.227816 -0.21006411 -0.5148285
0.22610214 -0.20554741 -0.50343245
0.22843382 -0.20470044 -0.51893657
0.22729693 -0.20072977 -0.51137704
0.22731598 -0.19779442 -0.5115037
0.22733475 -0.19485837 -0.51162851
0.2267746 -0.1914331 -0.50790381
0.2262139 -0.18802194 -0.50417548
0.22565265 -0.1846249 -0.50044364
0.22566995 -0.18170828 -0.50055861
0.22510777 -0.17833214 -0.49682057
0.22512442 -0.17542163 -0.4969312
0.2251408 -0.17251047 -0.49704006
0.2251569 -0.1695987 -0.49714717
0.22517274 -0.16668631 -0.49725252
0.22576815 -0.16419502 -0.50121158
0.22578357 -0.16127399 -0.50131416
0.22579874 -0.15835236 -0.50141495
0.22581363 -0.15543015 -0.50151402
0.22582825 -0.15250739 -0.50161123
0.2258426 -0.14958405 -0.50170666
0.22585668 -0.14666018 -0.5018003
0.22587049 -0.14373577 -0.50189209
0.22646475 -0.14117283 -0.50584352
0.22647811 -0.13823989 -0.50593245
0.22649121 -0.13530643 -0.50601947
0.22650403 -0.13237248 -0.50610471
0.22651657 -0.12943804 -0.50618815
0.22652884 -0.12650312 -0.50626969
0.22654083 -0.12356773 -0.50634944
0.22713393 -0.12094145 -0.51029319
0.22714546 -0.11799764 -0.51036984
0.2271567 -0.11505339 -0.51044458
0.22716767 -0.11210872 -0.51051748
0.22717835 -0.10916363 -0.51058853
0.22835237 -0.10676215 -0.51839495
0.22778076 -0.10353671 -0.51459414
0.22837263 -0.10083987 -0.51852971
0.2295464 -0.098377027 -0.52633446
0.23072015 -0.095883697 -0.53413916
0.23889962 -0.089975186 -0.58852738
0.24065608 -0.087511301 -0.60020667
0.23891807 -0.083776467 -0.58864999
0.23776184 -0.080283217 -0.58096182
0.22361587 0.48788917 -0.48690036
0.2251948 0.49718332 -0.49739918
0.22238295 0.49386343 -0.47870225
0.22400187 0.50036782 -0.48946694
0.22285295 0.50069559 -0.48182738
0.22170514 0.50099605 -0.47419524
0.22111097 0.50252491 -0.47024435
0.22051728 0.50403947 -0.46629667
0.21992406 0.50553972 -0.46235225
0.21933135 0.50702572 -0.4584111
0.21929035 0.50977886 -0.45813838
0.21869829 0.51124281 -0.45420167
0.21810676 0.51269251 -0.45026836
0.21806595 0.5154286 -0.44999695
0.21802498 0.51816326 -0.44972453
0.21798386 0.52089649 -0.44945112
0.2173934 0.52230883 -0.4455249
0.21680345 0.52370703 -0.44160214
0.21621403 0.52509123 -0.43768293
0.21672153 0.52913827 -0.44105747
0.21722822 0.53319651 -0.44442657
0.21718656 0.5359149 -0.44414961
0.21769193 0.53998905 -0.44751
0.21710283 0.54134732 -0.44359288
0.21651429 0.54269165 -0.43967938
0.21592629 0.54402208 -0.43576959
0.21533884 0.54533863 -0.43186349
0.2152974 0.54802978 -0.43158793
0.21580091 0.55211401 -0.43493596
0.2163036 0.55620927 -0.43827847
0.21680544 0.56031537 -0.4416154
0.21621838 0.56160623 -0.43771186
0.21617559 0.5643025 -0.43742728
0.21613266 0.56699735 -0.43714184
0.21608961 0.56969076 -0.43685552
0.2155038 0.57094514 -0.43296036
0.21546085 0.57362956 -0.43267474
0.21541777 0.57631248 -0.43238831
0.21483304 0.57753813 -0.42850018
0.2142489 0.57875025 -0.42461607
0.21312456 0.57848096 -0.41713992
0.212542 0.57966 -0.41326627
0.21196005 0.58082557 -0.40939668
0.21191843 0.58346373 -0.40911996
0.21133736 0.5846085 -0.40525615
0.21129589 0.58723789 -0.40498042
0.2112543 0.58986592 -0.40470392
0.21121261 0.59249252 -0.40442672
0.21063294 0.59360194 -0.40057227
0.20951639 0.59317631 -0.39314798
0.20893836 0.5942533 -0.38930446
0.20836098 0.59531707 -0.38546523
0.20778425 0.59636778 -0.3816303
0.20774417 0.59895074 -0.38136384
0.20770401 0.6015324 -0.38109675
0.20712848 0.60255557 -0.37726986
0.20655361 0.60356575 -0.37344739
0.20651391 0.60613173 -0.37318343
0.20647413 0.60869646 -0.37291884
0.20643425 0.61125982 -0.37265369
0.20586091 0.61223567 -0.36884135
0.20582123 0.61479068 -0.36857754
0.20578147 0.61734438 -0.36831313
0.2052094 0.61829323 -0.36450922
0.204638 0.61922932 -0.36070988
0.20459875 0.62176764 -0.36044887
0.20455943 0.62430471 -0.36018735
0.20452 0.62684053 -0.35992524
0.20448051 0.6293751 -0.35966262
0.20391104 0.63027048 -0.35587594
0.20387177 0.63279676 -0.35561484
0.20383242 0.63532186 -0.35535324
0.203793 0.63784564 -0.35509112
0.20322515 0.63870764 -0.35131532
0.20265803 0.63955712 -0.34754425
0.19998135 0.63370717 -0.32974613
0.19941722 0.63450933 -0.325995
0.19832702 0.63361621 -0.31874594
0.19829111 0.63607669 -0.31850711
0.19825512 0.63853598 -0.31826782
0.19821908 0.64099413 -0.31802812
0.19818296 0.64345115 -0.317788
0.19814679 0.64590704 -0.31754744
0.19811055 0.6483618 -0.31730652
0.19755025 0.64909369 -0.3135809
0.1969907 0.64981347 -0.30986023
0.19695508 0.65225387 -0.30962339
0.19691941 0.65469307 -0.30938616
0.19688368 0.6571312 -0.30914858
0.19684789 0.65956825 -0.30891061
0.19681203 0.66200411 -0.30867225
0.19677614 0.6644389 -0.30843353
0.1962194 0.66510731 -0.30473158
0.19566342 0.66576385 -0.30103466
0.19562817 0.66818452 -0.30080026
0.19611242 0.67238545 -0.30402029
0.19711499 0.67838275 -0.31068665
0.19707836 0.68081611 -0.3104431
0.19756003 0.68504578 -0.31364587
0.19648701 0.68387687 -0.30651104
0.19593312 0.6844936 -0.30282798
0.1958971 0.68691194 -0.30258852
0.19586104 0.68932915 -0.30234876
0.19634123 0.69356906 -0.30554175
0.19785234 0.70147645 -0.31558958
0.20142284 0.7167514 -0.33933106
0.20447245 0.73025876 -0.35960901
0.20185588 0.72353542 -0.34221059
0.20387156 0.73340809 -0.3556135
0.20280091 0.73219031 -0.34849441
0.20173188 0.73095059 -0.34138599
0.20066445 0.72968888 -0.3342883
0.20109527 0.73647875 -0.33715296
0.20412463 0.75022429 -0.3572962
0.20254691 0.74705613 -0.34680545
0.20352626 0.75331146 -0.35331744
0.20144087 0.74820894 -0.33945096
0.20390566 0.76266009 -0.35584021
0.20233397 0.75940937 -0.34538957
0.20483541 0.77145803 -0.36202246
0.20174009 0.76242036 -0.34144062
0.2022057 0.76680607 -0.34453663
0.20207706 0.77419132 -0.34368125
0.2020341 0.77665061 -0.34339562
0.20047344 0.77325475 -0.33301824
0.21907301 -0.59262055 -0.4380177
0.2180233 -0.58698583 -0.43112734
0.21916281 -0.58724391 -0.4386071
0.21920751 -0.58455336 -0.43890059
0.21925209 -0.58186132 -0.43919325
0.21984535 -0.58061719 -0.44308743
0.21989004 -0.57791615 -0.4433808
0.21938509 -0.57377642 -0.44006625
0.21887928 -0.56964737 -0.43674609
0.22332479 -0.57835394 -0.46592689
0.22006753 -0.56709707 -0.44454581
0.22121347 -0.56721407 -0.45206797
0.22456598 -0.57293117 -0.47407418
0.22075091 -0.5603677 -0.44903162
0.22249588 -0.55909222 -0.46048582
0.22198792 -0.55496979 -0.4571515
0.2220322 -0.55223393 -0.4574421
0.22207633 -0.54949653 -0.45773178
0.22212031 -0.5467577 -0.45802051
0.22271828 -0.54537427 -0.46194562
0.22276232 -0.54262614 -0.46223471
0.2228062 -0.53987658 -0.4625228
0.22284995 -0.53712553 -0.46280992
0.22289354 -0.53437299 -0.46309602
0.22293697 -0.53161895 -0.46338114
0.22298026 -0.52886343 -0.46366525
0.22357991 -0.52741927 -0.46760148
0.22362323 -0.52465451 -0.46788579
0.22366638 -0.5218882 -0.46816906
0.22426692 -0.52041429 -0.47211108
0.22375222 -0.51635128 -0.46873248
0.22379489 -0.51358056 -0.46901259
0.22439595 -0.51208305 -0.472958
0.22443862 -0.50930303 -0.47323817
0.22504035 -0.50778335 -0.4771879
0.22508302 -0.50499398 -0.47746804
0.22512554 -0.50220311 -0.47774708
0.22516787 -0.49941081 -0.47802502
0.22577055 -0.49785301 -0.48198107
0.22581287 -0.49505129 -0.48225886
0.22585502 -0.49224812 -0.48253551
0.22589698 -0.48944348 -0.48281103
